# .PCD v0.7 - Point Cloud Data file format
VERSION 0.7
FIELDS x y z
SIZE 4 4 4
TYPE F F F
COUNT 1 1 1
WIDTH 1399
HEIGHT 1
VIEWPOINT 0 0 0 1 0 0 0
POINTS 1399
DATA ascii
-0.015201 0.0095960004 0.024161
-0.015260001 0.013960001 0.024351001
-0.015240001 0.0072280006 0.024287002
-0.01523 0.015084 0.024254002
-0.015215001 0.012996001 0.024205001
-0.015218001 0.018551001 0.024215002
-0.015223 0.018338 0.024231002
-0.015207 0.019937001 0.024182001
-0.015196001 0.020239001 0.024145002
-0.015228 0.019629 0.024249002
-0.015249 0.025132 0.024317
-0.015181 0.013699001 0.024097001
-0.015211001 0.018175 0.024193002
-0.015252001 0.023288 0.024326002
-0.015097001 0.016008001 0.023860002
-0.015153001 0.022054002 0.024017001
-0.015115 0.013137001 0.023911001
-0.015155001 0.019613001 0.024024
-0.015162 0.013895001 0.024043001
-0.01517 0.0098840008 0.024066001
-0.015101001 0.0092290007 0.023870002
-0.015108 0.018650001 0.023891002
-0.015061 0.011842 0.023757001
-0.015055001 0.0090550007 0.023742002
-0.015145001 0.018704001 0.023994001
-0.015139 0.020990999 0.023979001
-0.015033001 0.0082760006 0.023680001
-0.015073 0.014356 0.023791002
-0.015177 0.0067730001 0.024086002
-0.015016001 0.0095780008 0.023631001
-0.015135001 0.0076010004 0.023967
-0.015059001 0.014605001 0.023754001
-0.015136001 0.013697 0.02397
-0.015174001 0.022745002 0.024077
-0.015087001 0.018000999 0.023832003
-0.014989001 0.015500001 0.023556001
-0.014998001 0.017879 0.023582002
-0.015096 0.021854002 0.023856003
-0.015112001 0.022431001 0.023902001
-0.015008001 0.017251 0.023609001
-0.015041001 0.024873 0.023702001
-0.014979001 0.013664001 0.023528
-0.015077 0.025287002 0.023803001
-0.015025 0.019918 0.023657002
-0.014983 0.025306001 0.023541002
-0.015050001 0.017547002 0.023728002
-0.015038 0.020108001 0.023695001
-0.015049 0.024357002 0.023725001
-0.015025 0.017132001 0.023658002
-0.015052001 0.016528999 0.023734
-0.015155001 0.023527002 0.024022
-0.014983 0.018968001 0.023541002
-0.014793001 0.011968001 0.023062002
-0.014889001 0.012777001 0.023301002
-0.014954002 0.023094 0.023465002
-0.014815 0.0094340006 0.023114001
-0.014804001 0.0092400005 0.023088001
-0.014840001 0.0098050004 0.023177002
-0.014808 0.013085 0.023099001
-0.014848 0.010695 0.023197001
-0.014891 0.016079001 0.023305001
-0.014904001 0.011068 0.023338001
-0.014843001 0.0081160003 0.023185
-0.014954002 0.021115001 0.023463
-0.014902001 0.012905001 0.023332002
-0.014941 0.012801 0.023429003
-0.014907001 0.016537001 0.023347002
-0.014929 0.016788 0.023401
-0.014944001 0.017729001 0.023437001
-0.014934001 0.010208 0.023411
-0.014917 0.019137001 0.023372
-0.014912001 0.010863001 0.023358
-0.014823001 0.019432001 0.023145001
-0.014702001 0.020688001 0.022841999
-0.014791001 0.021679003 0.023063
-0.014702001 0.019830002 0.022843001
-0.014699001 0.017685 0.022839002
-0.014711001 0.015566001 0.022872001
-0.014899001 0.023673002 0.023328001
-0.014884001 0.024718001 0.023288
-0.014825 0.024853002 0.023142001
-0.014727001 0.018222 0.022907
-0.014703001 0.016647 0.022851001
-0.014713001 0.023366001 0.022864001
-0.01467 0.015343001 0.022771001
-0.014756001 0.017657001 0.022982001
-0.014796 0.019883001 0.023078
-0.014719001 0.014572 0.022893
-0.014651 0.011497 0.022731002
-0.014632001 0.020291001 0.022685001
-0.014626001 0.02296 0.022670001
-0.014649001 0.014235 0.022722002
-0.014656001 0.018862 0.022738002
-0.014662 0.017590001 0.022750001
-0.014634 0.014005001 0.022688001
-0.014638 0.021752002 0.022697002
-0.014619001 0.011343001 0.022654001
-0.014616 0.011796 0.022649001
-0.014606001 0.010963 0.022627002
-0.014577 0.0089950003 0.022561003
-0.014552001 0.011392001 0.022506002
-0.014575001 0.0090330001 0.022556001
-0.01458 0.015715001 0.022567
-0.014514001 0.010707 0.022421001
-0.014507 0.0089230007 0.022406001
-0.014569001 0.014454002 0.022544002
-0.014541001 0.011458001 0.022482002
-0.014525 0.015730001 0.022446001
-0.014471 0.011286001 0.022326002
-0.014479001 0.016594 0.022344001
-0.014522001 0.016933002 0.022439001
-0.014476 0.014144001 0.022336001
-0.014499 0.02365 0.022389
-0.014574001 0.023511 0.022554003
-0.014507 0.020313 0.022405002
-0.014478001 0.022284001 0.022341
-0.014460001 0.017240001 0.022301001
-0.014484001 0.023778001 0.022354001
-0.014403 0.016069001 0.022186002
-0.014394001 0.018729001 0.022168001
-0.014455001 0.019613001 0.022290003
-0.014364001 0.0097790007 0.022109
-0.014455001 0.021516001 0.022292001
-0.014401001 0.013012 0.022183001
-0.014446001 0.020988002 0.022273002
-0.014454002 0.011448001 0.022289
-0.014352001 0.0096020009 0.022084001
-0.014460001 0.0135 0.022302002
-0.014381 0.019058002 0.022142
-0.014324001 0.014392001 0.022027001
-0.014336001 0.014442001 0.022052001
-0.014434 0.021984 0.022249002
-0.014281001 0.016153 0.021942001
-0.014239001 0.015536001 0.021858001
-0.014302 0.02471 0.021984
-0.014252 0.017921001 0.021883
-0.014266 0.015790001 0.021911001
-0.014383001 0.022823 0.022146001
-0.014276001 0.024111001 0.021932
-0.014325 0.021695001 0.022029001
-0.014269001 0.019242002 0.021918001
-0.014279001 0.015423001 0.021938
-0.014409001 0.024400001 0.022198001
-0.014318001 0.024706 0.022015
-0.014288001 0.020410001 0.021956
-0.014233001 0.014227001 0.021846002
-0.014203001 0.016770002 0.021785
-0.014213001 0.01023 0.021805001
-0.014211001 0.020021001 0.021803001
-0.014135001 0.015238001 0.02166
-0.014168001 0.022541001 0.021725001
-0.014171001 0.010774001 0.021723
-0.013906001 0.011651001 0.021239001
-0.014062001 0.011163001 0.021525001
-0.014122 0.013162 0.021635002
-0.013961001 0.013165001 0.021342
-0.014123001 0.016209001 0.021638002
-0.014179001 0.021062002 0.021744
-0.01403 0.010991001 0.021466
-0.014137001 0.020864001 0.021666002
-0.014125001 0.021096002 0.021645002
-0.014011 0.015171 0.021433001
-0.014105001 0.012488 0.021603001
-0.014198001 0.018554002 0.021776
-0.014183001 0.015365001 0.021747001
-0.013904001 0.012063 0.021236001
-0.014166001 0.023028001 0.02172
-0.014036001 0.018211002 0.021477001
-0.014081001 0.021357002 0.021558002
-0.014107001 0.022947002 0.021605
-0.013919001 0.013556001 0.021261999
-0.013979001 0.020122999 0.021372002
-0.01398 0.023654001 0.021375
-0.014056001 0.022909002 0.021513002
-0.01398 0.021357002 0.021373
-0.01407 0.024198001 0.021538001
-0.013921 0.016224002 0.021267001
-0.014016001 0.019540003 0.021439001
-0.013892001 0.022379002 0.021215001
-0.014109001 0.023302002 0.021609001
-0.014092001 0.021728002 0.021578001
-0.014056001 0.021199001 0.021512
-0.014025 0.020861002 0.021455999
-0.014023 0.018920001 0.021453001
-0.013846001 0.018419001 0.021133
-0.013793001 0.012617 0.021046
-0.01382 0.012016 0.021090001
-0.013808 0.01303 0.021071
-0.013835001 0.020890001 0.021114001
-0.01382 0.018976999 0.021090001
-0.013794 0.023641001 0.021047002
-0.013794 0.020465001 0.021046
-0.013780001 0.020567 0.021024002
-0.013735 0.012426 0.020949
-0.013758001 0.015220001 0.020988002
-0.013754 0.017770002 0.020981003
-0.013749001 0.019782001 0.020972
-0.013654001 0.012159001 0.020815002
-0.013710001 0.015131 0.020907
-0.013691001 0.016399002 0.020877002
-0.013692001 0.016623 0.020878002
-0.013708001 0.013745001 0.020904001
-0.013594001 0.012294 0.020714002
-0.013586001 0.012098 0.020701
-0.013678001 0.024595 0.020855
-0.013669 0.022297002 0.02084
-0.013648001 0.021067001 0.020806001
-0.013723 0.023699 0.020929001
-0.013532001 0.022511002 0.020613002
-0.013588001 0.019792 0.020705001
-0.013575001 0.025028002 0.020684
-0.013605 0.015179001 0.020734001
-0.013565 0.018379001 0.020668
-0.013534001 0.021255 0.020617001
-0.013537 0.016741 0.020620001
-0.013374 0.014541001 0.020373
-0.013523 0.024950001 0.020599002
-0.013436001 0.019956 0.020467
-0.013532001 0.012162 0.020613002
-0.013509001 0.021580001 0.020578001
-0.013457 0.016669001 0.020499002
-0.013464 0.014356 0.020509001
-0.013474001 0.019629 0.020524001
-0.013505001 0.013776001 0.020573001
-0.013397001 0.014102001 0.020408003
-0.013375001 0.016771 0.020374002
-0.013430001 0.021454001 0.020457001
-0.013452 0.021989001 0.020491
-0.013295 0.025158003 0.020254001
-0.013325 0.015366001 0.020298
-0.013408001 0.020378001 0.020424001
-0.013389001 0.018727001 0.020395001
-0.013353 0.024046 0.020342
-0.013383001 0.017876001 0.020386001
-0.013294 0.01589 0.020251
-0.013481 0.023826001 0.020534001
-0.013242001 0.017391002 0.020173002
-0.013241 0.018714001 0.020170001
-0.013282 0.013305001 0.020233002
-0.013216 0.012587001 0.020133
-0.012991001 0.015442001 0.019818002
-0.013194001 0.01596 0.020102
-0.013081001 0.017863002 0.019947002
-0.012952 0.013878001 0.019763002
-0.012959001 0.013286001 0.019772001
-0.013177001 0.020036001 0.020083001
-0.013200001 0.015419001 0.020110002
-0.01319 0.015220001 0.020096002
-0.012993 0.014455001 0.019820001
-0.012934 0.014626001 0.019738002
-0.013114001 0.013098001 0.019988002
-0.013008001 0.012233 0.019839002
-0.013161001 0.015197 0.020056
-0.013128001 0.013931001 0.020008
-0.011652001 0.024312001 0.018189
-0.011629 0.019420002 0.018164
-0.011647001 0.017957002 0.018184001
-0.011563 0.020014001 0.018093001
-0.011597001 0.018856002 0.018130001
-0.011654001 0.024840001 0.018191
-0.011704001 0.024606002 0.018245002
-0.011658001 0.017636001 0.018196
-0.011663001 0.019909002 0.018201001
-0.011708001 0.019528002 0.018250002
-0.011747001 0.020456001 0.018292001
-0.011773 0.019443002 0.018319001
-0.011707 0.018421 0.018249001
-0.012049001 0.023174001 0.018632
-0.011979001 0.025223 0.018544002
-0.011978 0.023158003 0.018549001
-0.012127001 0.025284002 0.018718001
-0.011926 0.020754 0.018494001
-0.012973 0.01723 0.019792
-0.012867 0.013791001 0.019644
-0.013238001 0.025353001 0.020167001
-0.012937001 0.015836 0.019743001
-0.013055001 0.019761 0.019908002
-0.012955001 0.023626 0.019766001
-0.013009001 0.023387 0.01984
-0.013083001 0.024159001 0.019943003
-0.012813 0.024561003 0.019568002
-0.012819001 0.023155002 0.019577
-0.012834 0.019275 0.019597001
-0.012848 0.01388 0.019615
-0.012898 0.025139 0.019687001
-0.012878001 0.014946001 0.019657001
-0.012861 0.018055001 0.019634001
-0.012899001 0.024145002 0.019687001
-0.013061 0.021766001 0.019912001
-0.012810001 0.022180002 0.019564001
-0.012798001 0.020056 0.019547002
-0.012790001 0.020268001 0.019537002
-0.012776 0.013693 0.019520001
-0.012754001 0.022762001 0.019491
-0.012699001 0.020023001 0.019421
-0.012486001 0.013577 0.019146999
-0.012472001 0.013456001 0.019129001
-0.012511 0.015818 0.019179001
-0.012733 0.02021 0.019464001
-0.012523 0.015116001 0.019195
-0.012688001 0.019358002 0.019407
-0.012509 0.014628001 0.019177001
-0.012652001 0.018676002 0.019361001
-0.012567001 0.015185001 0.019251
-0.012585001 0.018721001 0.019274002
-0.0125 0.021385001 0.019166002
-0.012513001 0.016317001 0.019182
-0.012448001 0.018319001 0.019099003
-0.012469 0.0233 0.019127002
-0.012675 0.022772001 0.01939
-0.012441001 0.017808001 0.019090001
-0.012640001 0.024894001 0.019345
-0.012483001 0.017731002 0.019143
-0.012501001 0.017616 0.019166002
-0.012509 0.021318002 0.019177001
-0.012435001 0.015903 0.019082002
-0.012574001 0.022202 0.019261001
-0.012398001 0.015505001 0.019038001
-0.012366001 0.017783001 0.019000001
-0.012351001 0.022150001 0.01898
-0.012307 0.017266002 0.018929001
-0.012406001 0.01747 0.019047001
-0.012215001 0.014799001 0.018820999
-0.012291001 0.013582001 0.018911
-0.012244001 0.01682 0.018855
-0.012301 0.022893 0.018922001
-0.012278001 0.020014001 0.018894
-0.012260001 0.018836001 0.018873001
-0.012209 0.016298002 0.018813001
-0.012309001 0.023098001 0.018931001
-0.012194001 0.021583002 0.018796001
-0.01207 0.016020002 0.018649001
-0.012148 0.017566001 0.018741
-0.012137 0.018331001 0.018729001
-0.012154001 0.015678002 0.018748
-0.012038001 0.014068001 0.018610001
-0.011926 0.014234001 0.018487001
-0.011878001 0.014512001 0.018435
-0.012164 0.024928 0.018761
-0.011905001 0.014675001 0.018465001
-0.012083001 0.020357002 0.018666001
-0.012102 0.022595 0.018690001
-0.011999 0.01496 0.018569002
-0.012060001 0.022873001 0.018643999
-0.011835 0.014908001 0.018388001
-0.012143 0.024575002 0.018736999
-0.011905001 0.015070001 0.018466001
-0.011745 0.015995001 0.018291002
-0.010902001 0.019631002 0.017443001
-0.010930001 0.023108002 0.017469
-0.010956001 0.019778 0.017493
-0.010962 0.019385001 0.017499002
-0.011326001 0.019817 0.017854001
-0.011035 0.015284001 0.017568002
-0.011229001 0.020232001 0.017764
-0.011278001 0.020203 0.017809002
-0.011143 0.016427001 0.017673001
-0.0113 0.019329002 0.017828001
-0.011202 0.016568001 0.017728001
-0.011123001 0.019174 0.017659001
-0.011009 0.020964002 0.017542999
-0.011086001 0.024939001 0.017614001
-0.011060001 0.023438001 0.017590001
-0.011090001 0.022573002 0.017621001
-0.011390001 0.024102001 0.017919002
-0.011302001 0.022717001 0.017833002
-0.011205001 0.025321001 0.017732002
-0.011086001 0.018886 0.017622001
-0.011120001 0.021718001 0.017652001
-0.011221 0.024882002 0.017749002
-0.010498 0.023604002 0.017077999
-0.010268 0.024025001 0.016883001
-0.010404001 0.024338001 0.016999001
-0.010502 0.024502002 0.017082002
-0.010325001 0.01963 0.016930001
-0.010481001 0.024068002 0.017064
-0.010475001 0.025225002 0.017059
-0.010279001 0.023004999 0.016892001
-0.010494001 0.021651 0.017077001
-0.010578001 0.023213001 0.01715
-0.010594 0.022384001 0.017167
-0.010596001 0.023723001 0.017166002
-0.010718001 0.024420001 0.017276
-0.010850001 0.025081001 0.017396001
-0.010729001 0.022292001 0.017289
-0.010506 0.016571 0.017087001
-0.010583 0.017251 0.017155001
-0.010552 0.019228002 0.017131001
-0.010569001 0.017751001 0.017144
-0.010575 0.018478002 0.01715
-0.010623001 0.020754 0.017195001
-0.010698001 0.022616001 0.017263001
-0.010392001 0.018131001 0.016991001
-0.010242 0.016166002 0.016858
-0.010710001 0.018599002 0.017267002
-0.010722001 0.015766 0.017274002
-0.010850001 0.021974001 0.017394001
-0.010768 0.016398001 0.017318001
-0.010851 0.019376 0.017396001
-0.0097559998 0.016850002 0.016469
-0.010128001 0.024597002 0.016765
-0.010009 0.023959002 0.016670002
-0.0098350001 0.019916002 0.016531002
-0.0097500002 0.020331001 0.016465001
-0.0097460011 0.023815002 0.016464001
-0.0098620011 0.024088001 0.016554002
-0.0096530002 0.023988003 0.016391002
-0.0097180009 0.020776 0.016441001
-0.0097530009 0.022116 0.016468002
-0.0098210005 0.020397 0.016521001
-0.0096620005 0.020424001 0.016396999
-0.0095720002 0.019673001 0.016332002
-0.0095230006 0.018072002 0.016296001
-0.0096160006 0.017957002 0.016364001
-0.0096210008 0.018992001 0.016368002
-0.0095210001 0.021248 0.016294001
-0.0095620006 0.024454001 0.016323
-0.0094189998 0.022106001 0.016219001
-0.009424 0.023265 0.016223
-0.0093840007 0.017600002 0.016194001
-0.0093820002 0.019157 0.016192
-0.0092860004 0.021387 0.016125999
-0.0093390001 0.021794003 0.016163001
-0.009327 0.022332001 0.016155001
-0.009180001 0.021438001 0.016054001
-0.0091899997 0.019787002 0.016058002
-0.0091390004 0.019539 0.016023001
-0.0090010008 0.019624002 0.015929
-0.0092660002 0.020826001 0.016111001
-0.0091580003 0.018777002 0.016035
-0.0089930007 0.021455001 0.015922001
-0.0088900011 0.020849003 0.015849
-0.0091820005 0.024317 0.016051002
-0.0087930011 0.018208001 0.015785001
-0.0094160009 0.024871001 0.016219001
-0.0093600005 0.024490001 0.016180001
-0.0088269999 0.021422002 0.015807001
-0.0089350007 0.024374003 0.015880002
-0.0087310001 0.022162002 0.015745001
-0.0087410007 0.024680002 0.015752001
-0.0087200003 0.025176002 0.015738001
-0.0087470002 0.019563001 0.015754001
-0.008537 0.022386001 0.015623
-0.0085460003 0.017892001 0.015627
-0.0084940009 0.018634001 0.015594001
-0.0086099999 0.023343002 0.015669001
-0.008607001 0.019558001 0.015666001
-0.0086750006 0.021396002 0.015709
-0.0083650006 0.019428 0.015514
-0.0083840005 0.020732 0.015526
-0.0085790008 0.024406001 0.015647002
-0.0086440006 0.024348 0.015690001
-0.0081400005 0.020146001 0.015381
-0.0083360011 0.021446001 0.015496001
-0.0081470003 0.019201001 0.015383001
-0.008165 0.020121001 0.015395002
-0.0084090009 0.024264 0.015542001
-0.0082270009 0.021814 0.015434001
-0.0079760002 0.022035001 0.015282
-0.008262 0.024864001 0.015452
-0.0083950013 0.023876 0.015533001
-0.008053001 0.022246001 0.015328001
-0.0082120001 0.022569001 0.015424
-0.0079810005 0.024918001 0.015283001
-0.0056360005 0.020928001 0.014180001
-0.0059870002 0.021979 0.014317001
-0.0056540002 0.019918 0.014185001
-0.0056350003 0.020867001 0.014179001
-0.0059410003 0.019902002 0.014296
-0.006087 0.022826001 0.014357001
-0.0056210002 0.019764001 0.014172001
-0.0062270006 0.022160999 0.014413001
-0.0062800003 0.024912002 0.014434
-0.0062259999 0.021038001 0.014413001
-0.0065270001 0.024227001 0.014546
-0.0062830001 0.025268001 0.014435001
-0.0063270004 0.021521 0.014457
-0.0064310003 0.023700003 0.014503001
-0.006358 0.020572001 0.014472001
-0.0064470004 0.023889001 0.014510001
-0.0065210001 0.021770002 0.014544
-0.006699 0.022666002 0.014622
-0.0065190005 0.021501001 0.014543001
-0.0069520003 0.024865001 0.014742
-0.0070080003 0.024243001 0.014771
-0.0068330006 0.023614001 0.014684001
-0.0070190006 0.020894 0.014775001
-0.0067910003 0.020415002 0.014666001
-0.0067070001 0.019845 0.014626001
-0.0069930004 0.019728001 0.014762001
-0.007003 0.021650001 0.014768001
-0.0069870003 0.021109 0.014760001
-0.0067550004 0.020769 0.014649001
-0.0073090005 0.024004001 0.014919001
-0.0071860002 0.024328001 0.014858001
-0.0072130002 0.022826001 0.014871001
-0.0073080002 0.024095001 0.014918001
-0.0074640005 0.021959001 0.015004001
-0.0073470003 0.020922001 0.014942002
-0.0074310005 0.023839002 0.014983
-0.0073410003 0.023124002 0.014934001
-0.007272 0.021097001 0.014900001
-0.0075860005 0.023819001 0.015068
-0.0078210002 0.022426002 0.015194001
-0.0075370003 0.019465001 0.015040001
-0.0075980006 0.019908002 0.015073
-0.0074060005 0.019629 0.014972
-0.0074030003 0.019296 0.014970001
-0.0078770006 0.024802001 0.015227001
-0.0076370006 0.021024002 0.015095001
-0.0078920005 0.023815002 0.015233001
-0.0078710001 0.021350002 0.015222001
-0.0078699999 0.019518001 0.015222001
-0.0078290002 0.018809 0.015199001
-0.0056139999 0.021656001 0.014172001
-0.0061090006 0.025110003 0.014365001
-0.0054660002 0.020665001 0.014114001
-0.0059890002 0.024437001 0.014318001
-0.0061110002 0.024715001 0.014367
-0.0058560004 0.025167001 0.014264001
-0.005448 0.024724003 0.014109001
-0.0055660005 0.023958001 0.014151
-0.004981 0.020164 0.013947
-0.0054050004 0.020143 0.014092001
-0.0053050001 0.020431001 0.014058
-0.0053040003 0.023449 0.014059001
-0.0053310003 0.022504 0.014068001
-0.0052830004 0.024750002 0.014051001
-0.0049310005 0.020358 0.013930001
-0.0050060004 0.022235002 0.013955001
-0.0053430004 0.024700003 0.014072
-0.0048720003 0.021470001 0.013912001
-0.0048860004 0.021271002 0.013916001
-0.004898 0.023289001 0.013921
-0.0047860001 0.023791002 0.013886
-0.0047440003 0.023374002 0.013873001
-0.0045990003 0.022780001 0.013828001
-0.0045810002 0.020956 0.013823001
-0.0048130006 0.023485001 0.013895001
-0.0044720005 0.021751 0.01379
-0.004495 0.021859 0.013797001
-0.0043000006 0.022493001 0.013743001
-0.0042270003 0.022946 0.013724
-0.0041500004 0.020966001 0.013701001
-0.0042230003 0.022260001 0.013722001
-0.0040640002 0.021189 0.013679001
-0.004402 0.024900001 0.013769001
-0.0042420002 0.024604002 0.013726001
-0.0039810003 0.024405003 0.013656001
-0.0038760002 0.02197 0.013629001
-0.0042680004 0.025047002 0.013733
-0.0040130001 0.022429002 0.013665001
-0.0036930002 0.021099001 0.013583001
-0.0036590002 0.021038001 0.013576001
-0.003642 0.021409001 0.013572
-0.0034430001 0.021290002 0.013528001
-0.0036380002 0.023561003 0.013572
-0.0035930001 0.020665001 0.013561
-0.0034920003 0.025370002 0.013539
-0.0031770002 0.022296 0.013469
-0.0031800002 0.02238 0.013469
-0.0032880004 0.022919001 0.013493001
-0.0031710002 0.024201002 0.013468001
-0.0030860002 0.02196 0.013452
-0.0030990001 0.021740001 0.013454001
-0.0030380003 0.021899002 0.013443001
-0.0028000001 0.023026001 0.013400001
-0.002819 0.022977 0.013403
-0.002876 0.025054002 0.013414
-0.0027390001 0.022255 0.013389001
-0.0026730003 0.021257002 0.013376001
-0.0025090002 0.023675 0.013353
-0.0022510001 0.02196 0.013314
-0.0024330001 0.021122001 0.013339001
-0.0026199999 0.023861 0.013370001
-0.002504 0.024186002 0.013352001
-0.0025610002 0.024382001 0.013361
-0.002077 0.022197001 0.013287
-0.0023020001 0.024940001 0.01332
-0.0022270002 0.023407001 0.013308
-0.0020320001 0.023735002 0.013281001
-0.00199 0.023577999 0.013275
-0.0019260001 0.022997001 0.013267001
-0.0016180001 0.022617001 0.013234001
-0.001839 0.023080001 0.013258001
-0.0017700001 0.023181001 0.013251001
-0.001729 0.022516001 0.013246001
-0.0016020001 0.02318 0.013233
-0.001487 0.023792 0.013221
-0.001392 0.021449 0.013211001
-0.001382 0.025273003 0.013211001
-0.001257 0.024018001 0.013200001
-0.0012130002 0.021976002 0.013198
-0.001135 0.022718001 0.013192001
-0.00099400012 0.025208002 0.013184001
-0.0011740001 0.025275001 0.013195001
-0.001004 0.025118001 0.013185001
-0.00085600006 0.021243 0.013174
-0.00086500007 0.023119001 0.013175
-0.00082500005 0.022475002 0.013172001
-0.00046900002 0.021655003 0.013159001
-0.00034100001 0.021495001 0.013155
-0.00058500003 0.024196001 0.013162
-0.00037900003 0.021531001 0.013156001
-0.00029300002 0.024213001 0.013155
-0.00017700001 0.024 0.013153001
-0.00046000004 0.025018001 0.013159001
-0.00019000001 0.023527002 0.013153001
-0.00054500002 0.024808003 0.013161001
-4.7000001e-05 0.024376001 0.01315
-4.7000001e-05 0.021294001 0.013152001
4.3000004e-05 0.024736002 0.013151
0.00030700004 0.021468002 0.013154001
0.00047300002 0.024966002 0.013159001
0.00014900001 0.02389 0.013152001
0.00052100007 0.024533002 0.013160001
0.00035400002 0.022331001 0.013155
0.00046300003 0.024601001 0.013159001
0.00062200002 0.021593001 0.013164001
0.00065100007 0.024494 0.013164001
0.00063200004 0.025 0.013163
0.00062000001 0.022770001 0.013164001
0.00075200002 0.025196001 0.013169
0.00078400003 0.023359001 0.013170001
0.001087 0.022848001 0.013188001
0.0011260001 0.025161 0.013192001
0.001152 0.024963001 0.013193
0.0012070001 0.022039 0.013198
0.0013420001 0.022694001 0.013208001
0.0011670002 0.023580002 0.013194001
0.001249 0.024497001 0.013199001
0.001596 0.023921 0.013232001
0.0015560001 0.022727 0.013227001
0.0014950001 0.021852 0.013220001
0.0016490001 0.025327001 0.013238001
0.0017880001 0.022754 0.013252
0.001772 0.023986001 0.013250001
0.0025980002 0.024298001 0.013367
0.0023840002 0.022928001 0.013332
0.002171 0.022241 0.013302
0.001925 0.02125 0.013270001
0.0020040001 0.023001 0.013280001
0.0022240002 0.024247 0.013310001
0.002136 0.024760002 0.013297001
0.002388 0.025230002 0.013332
0.0020660001 0.025283001 0.013286001
0.0034130004 0.021372002 0.013520001
0.0035730002 0.020736001 0.013557001
0.0035570001 0.021126 0.013553001
0.0033730001 0.023554003 0.013512
0.0034340001 0.023122001 0.013525
0.0035050004 0.023948001 0.013542
0.0032850003 0.023954002 0.013492
0.0029130003 0.022240002 0.013419
0.0031400002 0.023265 0.013462001
0.0031750002 0.023862001 0.013469
0.0030700001 0.020862 0.01345
0.0030170002 0.024590001 0.013439001
0.0031000001 0.024444001 0.013455001
0.002816 0.022129999 0.013402001
0.0028200001 0.021893 0.013402001
0.0023250002 0.021612 0.013323001
0.0026370003 0.022821 0.013372
0.0025660002 0.022008 0.01336
0.0026700003 0.022752002 0.013377001
0.0025090002 0.021854002 0.013351001
0.0037180001 0.023561003 0.013590001
0.0036590002 0.024696 0.013577
0.0038290003 0.021732001 0.013616001
0.0039910004 0.023885 0.013658001
0.0040250001 0.023577999 0.013667
0.0040720003 0.022346001 0.013680001
0.0039220001 0.021850001 0.013639
0.004127 0.024876 0.013695001
0.0053300001 0.022402002 0.014067001
0.005351 0.022833001 0.014075001
0.0053660003 0.020039 0.014079001
0.0051440005 0.020482002 0.014002001
0.0051720003 0.024910001 0.014011
0.0050450005 0.022834999 0.013966001
0.0052360003 0.024577001 0.014034001
0.0051500006 0.023136999 0.014004
0.0049820002 0.020644 0.013946
0.0048870002 0.020504002 0.013917
0.00496 0.022620002 0.01394
0.0047230003 0.020627001 0.013866001
0.004733 0.023982001 0.013869002
0.0047200001 0.022612 0.013865001
0.0045510004 0.021157 0.013813
0.0045679999 0.021039 0.013818
0.0046100002 0.021336002 0.013831001
0.0044980003 0.021188 0.013796
0.0043959999 0.023151001 0.013769001
0.0041230004 0.021824 0.013694
0.0042350003 0.020934001 0.013724
0.0043460005 0.020834999 0.013754
0.0043070004 0.020935001 0.013743001
0.0054239999 0.020938002 0.014100001
0.0054590004 0.023028001 0.014113001
0.0055200001 0.023322001 0.014134
0.0055820001 0.021786001 0.014156001
0.0056760004 0.020823002 0.014193
0.0057240003 0.021299001 0.014212
0.0058280001 0.022245001 0.014253001
0.005785 0.023838 0.014235
0.0058530006 0.023766002 0.014263
0.0058280001 0.025296001 0.014252
0.0075530005 0.021067001 0.015051001
0.0074980003 0.021057 0.015021001
0.0077300002 0.023226 0.015147001
0.007832 0.024035001 0.015202001
0.0077090003 0.022676002 0.015135001
0.0077300002 0.021118 0.015145001
0.0076600001 0.020099001 0.015107001
0.0073170001 0.020706 0.014923001
0.0078140004 0.024835 0.015192001
0.0075540002 0.021855 0.015052001
0.0074030003 0.022554003 0.014968001
0.0073430003 0.021226 0.014936001
0.007712 0.024915002 0.015136001
0.0072980002 0.020441001 0.014912001
0.0073460005 0.023120003 0.014937001
0.0071420004 0.021672001 0.014835001
0.0071380003 0.022856003 0.014834001
0.007187 0.020588001 0.014857001
0.0072070002 0.022649001 0.014868001
0.0068890001 0.019000001 0.014712
0.0070819999 0.022554003 0.014806001
0.0067190002 0.019432001 0.014630001
0.0070300004 0.020087 0.014780001
0.006937 0.019181 0.014735
0.0069900001 0.024016002 0.014761
0.0070420001 0.024322001 0.014787001
0.0069320006 0.022918001 0.014734001
0.0066380003 0.019707002 0.014594001
0.006633 0.020128001 0.014591
0.0066760005 0.021171 0.014611001
0.0066020004 0.020990999 0.014579001
0.0067190002 0.020259002 0.014629001
0.006424 0.025157001 0.014499
0.0064130006 0.025335001 0.014494001
0.0065640006 0.023625001 0.014562001
0.0065710004 0.022878001 0.014566001
0.0067760004 0.025050001 0.014657
0.0063180001 0.024598001 0.014451001
0.0062480005 0.020756001 0.014422
0.0062570004 0.022435 0.014425001
0.0060060001 0.022260001 0.014324001
0.0061150002 0.020781001 0.014366001
0.005837 0.021471001 0.014257001
0.0059660003 0.020285999 0.014307001
0.0057880003 0.020566002 0.014237002
0.0058590006 0.021148002 0.014265001
0.0085389996 0.018194001 0.015623
0.0085080005 0.020586001 0.015604001
0.0083520003 0.018951001 0.015504001
0.008533 0.021249002 0.015619001
0.0083350008 0.018021001 0.015493001
0.0086479997 0.021011 0.015692001
0.0078810006 0.018834 0.015228
0.0078930007 0.018875001 0.015235
0.0079070004 0.018286001 0.015243
0.0080970004 0.021574 0.015351
0.0079660006 0.02107 0.015276001
0.0082030008 0.018606002 0.015415001
0.0080089998 0.020275 0.015301
0.0081250006 0.019200001 0.015369001
0.0082280003 0.021971002 0.015430001
0.0083339997 0.024203001 0.015495
0.0084210001 0.024284001 0.015548001
0.0081569999 0.021844001 0.015387001
0.0083870003 0.024668001 0.015527002
0.0082770009 0.018793 0.015457001
0.0083380006 0.025259001 0.015498001
0.00825 0.024903001 0.015444001
0.0085480008 0.023057001 0.015628001
0.0084220003 0.020870002 0.015548001
0.0084969997 0.023639001 0.015594001
0.0091450009 0.018402001 0.016026
0.009149001 0.017444002 0.016027002
0.0091150003 0.019407 0.016006002
0.0093440004 0.019249002 0.016163001
0.0091949999 0.021563001 0.016063001
0.0089220004 0.018554002 0.015872
0.0092629995 0.021481002 0.016110001
0.0091870008 0.018600002 0.016055001
0.0087290006 0.021186002 0.015743
0.0087320004 0.019163001 0.015745001
0.008893 0.023384001 0.015852001
0.0089420006 0.021410001 0.015883001
0.0089260004 0.021707002 0.015873
0.0088740001 0.022162002 0.015838001
0.0088280002 0.024252001 0.015809001
0.0088450005 0.020827001 0.015819
0.0091270003 0.023209 0.016013002
0.0091250008 0.023460001 0.016011
0.0091639999 0.021786001 0.016042
0.0093050003 0.024438001 0.016139001
0.0088440003 0.018105 0.015817001
0.0091310004 0.023887001 0.016015001
0.010120001 0.021388002 0.016761001
0.0099760005 0.019601 0.016643999
0.010125 0.020253001 0.016765
0.010162001 0.017137 0.016794002
0.010044 0.021718001 0.016700001
0.010176 0.019936001 0.016806001
0.0099270009 0.018363001 0.016605001
0.0094410004 0.022677001 0.016235001
0.0094330003 0.021819001 0.016229
0.0093790004 0.018405002 0.016189
0.0095020002 0.023744 0.016280001
0.0094870012 0.022248 0.016269
0.0095620006 0.024974002 0.016323
0.0096100001 0.019114001 0.016360002
0.0096850013 0.018933002 0.016416002
0.0097830007 0.016663 0.016490001
0.0096390005 0.023853002 0.016380001
0.0095319999 0.018084001 0.016302001
0.0095740007 0.021793 0.016332002
0.0098630004 0.022445001 0.016554002
0.0098649999 0.019838 0.016555002
0.0098130004 0.019911001 0.016514001
0.010026 0.024266003 0.016683001
0.0099720005 0.023602 0.01664
0.0098030008 0.023552001 0.016508
0.0097890003 0.022100002 0.016497001
0.0097690001 0.02043 0.016480001
0.0099360002 0.020488001 0.016611001
0.010065001 0.023522001 0.016713001
0.010456 0.017402001 0.017044002
0.010561001 0.019235002 0.017138001
0.010618 0.019580999 0.017188001
0.010752 0.020872001 0.017307
0.010601 0.019774001 0.017174
0.010688 0.018467 0.017247999
0.010652001 0.021238001 0.017219001
0.01058 0.017650999 0.017153
0.010611 0.017967001 0.017180001
0.010757 0.017271999 0.017307
0.010573001 0.017019 0.017146001
0.010884 0.019998001 0.017426001
0.010886 0.019896001 0.017428
0.010793 0.017610002 0.017340001
0.010238 0.021167001 0.016856002
0.010248001 0.016711 0.016864002
0.010313001 0.019347001 0.016919002
0.010326001 0.024241 0.016931999
0.010505001 0.024679001 0.017084001
0.010558 0.024713 0.017129
0.010405 0.021448001 0.016998
0.010521 0.024728002 0.017098
0.010377 0.023788001 0.016975001
0.010478 0.024654001 0.017061003
0.010833001 0.025243001 0.017379999
0.010650001 0.025063001 0.017211001
0.010511001 0.022117002 0.017089002
0.010724001 0.025112001 0.017279001
0.010717001 0.025109001 0.017274002
0.010530001 0.022316001 0.017106002
0.011513 0.022982001 0.018042
0.011310001 0.016875001 0.017835001
0.011554001 0.023456 0.018083001
0.011506001 0.019997001 0.018035
0.011542001 0.023492001 0.018071
0.011469 0.019782001 0.017997
0.011546 0.015867 0.018076001
0.011442001 0.021364002 0.017969001
0.011525 0.020333001 0.018054001
0.011077 0.018853001 0.017608
0.011014001 0.017643001 0.017549001
0.010979 0.017083 0.017515
0.010901 0.019511001 0.017442001
0.011031001 0.020395001 0.017565001
0.010903001 0.019680001 0.017443001
0.010993 0.017930001 0.017529
0.011162 0.017860001 0.017688001
0.011066001 0.022245001 0.017597001
0.011114001 0.018511999 0.017643001
0.01101 0.022129999 0.017545002
0.011097001 0.019838 0.017626001
0.011188 0.022867002 0.017714001
0.011260001 0.024020001 0.017787002
0.011375001 0.023868002 0.017901
0.011195 0.024581 0.017722001
0.011309001 0.021272 0.017835001
0.011323 0.020961002 0.017849002
0.011395001 0.023936002 0.017922001
0.011266001 0.02231 0.017792001
0.011264 0.022461001 0.017790001
0.011198 0.02197 0.017724002
0.011386001 0.024299001 0.017912002
0.011615001 0.015168001 0.018147001
0.011569001 0.016956 0.018099003
0.011668 0.015633002 0.018203
0.011676 0.022666002 0.018214002
0.01173 0.022389 0.018271999
0.011760001 0.018796001 0.018304002
0.011849 0.024024 0.018402001
0.011805001 0.020912001 0.018353002
0.01174 0.021213001 0.018282
0.011733 0.019307001 0.018274002
0.011672 0.019782001 0.018209001
0.011649 0.022075001 0.018184001
0.01178 0.023645002 0.018327
0.011974 0.022818001 0.018544002
0.011723001 0.016770002 0.018263001
0.011886001 0.020161001 0.018447001
0.011819 0.018958 0.018370003
0.011933 0.020602001 0.0185
0.012146001 0.024957001 0.018741
0.012352001 0.013686 0.018983999
0.012221 0.020926002 0.018828001
0.012290001 0.016262 0.01891
0.012251001 0.020601001 0.018864002
0.012410001 0.015396001 0.019053001
0.012211001 0.022418 0.018816002
0.012264 0.020632001 0.018879
0.012315 0.015526 0.018940002
0.012326001 0.018031001 0.018954001
0.012122001 0.017289 0.018709
0.012152001 0.015958002 0.018746002
0.012132 0.015316001 0.018721001
0.011743001 0.015126001 0.018286001
0.011814001 0.015027002 0.018365001
0.011804 0.015666001 0.018354001
0.011818 0.016105 0.018370003
0.012076001 0.022897001 0.018662002
0.011879 0.018852001 0.018441001
0.012118001 0.021750001 0.018708002
0.012113 0.020631002 0.018701002
0.011940001 0.016059 0.018505
0.012113 0.023263002 0.018703001
0.012032 0.017969001 0.018609
0.012013 0.018198 0.018587001
0.013228 0.014504001 0.020151
0.013116001 0.015334001 0.019994
0.013098001 0.017602 0.019969001
0.013135001 0.019997001 0.020024002
0.013189001 0.0137 0.020096002
0.012920001 0.012603001 0.019715002
0.013208001 0.019434001 0.020126
0.013256 0.021258 0.020194001
0.012999 0.016562002 0.019829001
0.013254 0.022192001 0.020193001
0.012939001 0.014664 0.019744001
0.013152001 0.020414 0.020048002
0.013163 0.019229 0.020063
0.013106001 0.016951 0.019981002
0.012985 0.013088001 0.019807
0.013265001 0.018931001 0.020206001
0.013257001 0.016702 0.020194001
0.012215001 0.024601001 0.018820999
0.012331001 0.022976002 0.018958
0.012324001 0.023351001 0.018950002
0.012414 0.017351002 0.019058002
0.012211001 0.024133001 0.018817
0.012321001 0.020396002 0.018947002
0.012402001 0.022692 0.019041002
0.012523 0.018353002 0.019194001
0.012482001 0.016250001 0.019141002
0.012619001 0.021120002 0.019317001
0.012578 0.018896 0.019264001
0.012483001 0.025044002 0.019144
0.012423001 0.021400001 0.019067001
0.01266 0.021386001 0.019369001
0.012475001 0.015907001 0.019132001
0.01253 0.020485001 0.019203
0.012494001 0.018441001 0.019157
0.012591001 0.020622 0.019281002
0.012534001 0.024979001 0.01921
0.012741 0.021128001 0.019475002
0.012657 0.017991001 0.019367002
0.012655 0.015593001 0.019365001
0.012652001 0.016427999 0.019360002
0.012738001 0.018828001 0.019471001
0.012537001 0.015910001 0.019211002
0.01259 0.015106001 0.019280002
0.012651 0.019438 0.019358002
0.012685001 0.018193001 0.019403001
0.012760001 0.017725002 0.0195
0.012769001 0.023827001 0.019510001
0.012809001 0.017494 0.019564001
0.012806 0.016682001 0.01956
0.012798001 0.021115001 0.019548001
0.012814001 0.014163001 0.019571001
0.012855 0.015138 0.019624002
0.013036001 0.020153001 0.019877002
0.012865 0.018992001 0.019639
0.012857001 0.024281001 0.019629
0.012931 0.022206001 0.019732002
0.012817001 0.020766001 0.019573001
0.012875001 0.018827001 0.019653
0.012864001 0.01757 0.019637
0.012905001 0.024622001 0.019696001
0.012854001 0.018307 0.019624002
0.012896 0.024938 0.019684002
0.013011 0.019865001 0.019843001
0.012898 0.021153001 0.019686002
0.012976 0.017325001 0.019793
0.013148 0.021894 0.020040002
0.013218001 0.024142001 0.020141002
0.012968001 0.016727 0.019782001
0.012986001 0.016821001 0.01981
0.013389001 0.012054 0.020396002
0.013365 0.016784001 0.020359
0.013405001 0.019197002 0.020422002
0.013353 0.013618001 0.020342
0.013366001 0.014878001 0.020362001
0.013511 0.011906001 0.020583002
0.013448001 0.01332 0.020486001
0.013329001 0.017328 0.020304002
0.013402001 0.016571 0.020416001
0.013409001 0.011927 0.020427002
0.013295 0.020127002 0.020253001
0.013501001 0.011593001 0.020568002
0.013509001 0.018388001 0.020580001
0.013512 0.019632 0.020583002
0.013413001 0.022415003 0.020432001
0.013527001 0.021082001 0.020605
0.013507 0.024660001 0.020575002
0.013518 0.016650001 0.020593001
0.013488 0.020356001 0.020546
0.013549 0.014141001 0.020641001
0.013523 0.019872 0.020600002
0.0135 0.021862 0.020564001
0.013594001 0.014134 0.020713
0.013593001 0.012871001 0.020712001
0.013591 0.020744 0.020710001
0.013682001 0.024476001 0.020862
0.01374 0.024255 0.020957002
0.013659001 0.023359001 0.020823002
0.013544001 0.019648002 0.020632001
0.013560001 0.021172002 0.020659002
0.013635001 0.025374001 0.020784002
0.013665001 0.024206001 0.020833001
0.013669 0.023567 0.02084
0.013807001 0.023362001 0.021068001
0.013878001 0.013394001 0.021189
0.013808 0.023537003 0.021071
0.013824001 0.022639001 0.021097001
0.013803001 0.011603001 0.021063
0.013780001 0.021794003 0.021025
0.013791001 0.018367002 0.021042001
0.013821001 0.011097001 0.021093002
0.013850001 0.015184001 0.021142
0.013830001 0.015845001 0.021108001
0.013645001 0.015942002 0.020799002
0.013671 0.014222001 0.020843001
0.013710001 0.016612001 0.020907
0.013772001 0.023743002 0.021010002
0.013771 0.013923001 0.021010002
0.013675001 0.014941 0.020849003
0.013738001 0.018436002 0.020953
0.013742 0.018434001 0.020961002
0.013744001 0.011303001 0.020965001
0.013679001 0.015723001 0.020856002
0.014221 0.017737001 0.021822002
0.013989001 0.010876001 0.02139
0.014152001 0.019295001 0.021693002
0.014055001 0.011667 0.021511002
0.014008001 0.015317001 0.021427002
0.014138 0.015221001 0.021666002
0.013972001 0.012185001 0.021360002
0.014199001 0.015684001 0.021778001
0.01415 0.019944001 0.021690002
0.014113001 0.012114001 0.021618001
0.014172001 0.016835 0.021728002
0.014167001 0.012469 0.021718001
0.013997001 0.010767001 0.021405002
0.014023 0.015163001 0.021454001
0.013939001 0.011852001 0.021299001
0.013988 0.011559 0.021388002
0.014028001 0.014748001 0.021463001
0.014147001 0.013783 0.021682
0.01411 0.020455001 0.021616001
0.013922 0.011605 0.021267001
0.014132001 0.022370001 0.021653
0.014024001 0.023160001 0.021453001
0.013920001 0.020942001 0.021265
0.01391 0.021182001 0.021246001
0.014057001 0.024116 0.021515001
0.014014001 0.018205 0.021436002
0.013948001 0.013680001 0.021313
0.013963001 0.014878001 0.021341
0.014 0.025356002 0.021411
0.014045001 0.019157 0.021492003
0.014017001 0.018744001 0.021441001
0.013966001 0.023246001 0.021348001
0.014049 0.021502001 0.021499002
0.014072 0.022524001 0.021542002
0.014 0.020478001 0.021409001
0.013935001 0.023057001 0.021292999
0.013884 0.025352001 0.021200001
0.014566001 0.014486001 0.022536
0.014614001 0.0089340005 0.022643
0.014615 0.012082 0.022645002
0.014574001 0.012396 0.022555001
0.014524001 0.0091949999 0.022443002
0.014511 0.0094020013 0.022412002
0.014619001 0.012024 0.022655001
0.014611001 0.0097150002 0.022638002
0.014522001 0.0093100006 0.022438001
0.014356 0.0097670006 0.022092
0.014251001 0.020533001 0.021883
0.014306 0.014901001 0.021993002
0.014229001 0.024514001 0.021837002
0.014277001 0.017832002 0.021934001
0.014245001 0.012079001 0.021869
0.014235 0.023832003 0.021850001
0.014328001 0.018561002 0.022037001
0.014332 0.014844 0.022045001
0.014256001 0.016022 0.02189
0.014248 0.015774 0.021875001
0.014340001 0.011516 0.022061002
0.014385001 0.011238 0.022152001
0.014279001 0.012355 0.021937001
0.014367 0.012271 0.022115001
0.014289 0.019424001 0.021958001
0.014401001 0.021000002 0.022184001
0.014288001 0.023594001 0.021956
0.014454002 0.024226001 0.022288002
0.014249001 0.024816001 0.021878002
0.014333 0.020355001 0.022047002
0.014419001 0.024965001 0.022219
0.014401001 0.020183001 0.022183001
0.014363 0.018728001 0.022107001
0.014317001 0.020296 0.022014001
0.014458001 0.013498001 0.022298001
0.014271 0.024661001 0.021922002
0.014394001 0.019554002 0.022169001
0.01441 0.020031001 0.022201002
0.014409001 0.014640001 0.022201002
0.014515001 0.024579002 0.022423001
0.014475001 0.023751 0.022334
0.014466001 0.021120002 0.022315001
0.014471 0.018107001 0.022326002
0.014518 0.015091 0.022430001
0.014468001 0.023247002 0.022318002
0.014505001 0.020852 0.022402002
0.014511 0.019830002 0.022415003
0.014498001 0.023421001 0.022385001
0.014567001 0.019301001 0.022538001
0.014566001 0.020192001 0.022535
0.014887 0.019088 0.023296
0.014908001 0.019376 0.023348
0.014841001 0.014705 0.023179002
0.014886 0.013640001 0.023294002
0.014867 0.013667 0.023245001
0.014887 0.0098060006 0.023295002
0.014851 0.012614001 0.023204001
0.014774001 0.0082400003 0.023013001
0.014849001 0.015839001 0.023199001
0.014921 0.019376 0.02338
0.014901001 0.013364001 0.023332002
0.014879 0.0080300001 0.023275001
0.014943001 0.019786 0.023436002
0.014929 0.016266001 0.023401
0.014966 0.013811001 0.023493001
0.014917 0.019759001 0.023371002
0.014878001 0.0091860006 0.023274001
0.014887 0.010770001 0.023295002
0.014855 0.012068001 0.023216
0.014627 0.013392 0.022673002
0.014636001 0.020247001 0.022693003
0.014657 0.015333001 0.022740001
0.014657 0.011641 0.022741001
0.014659001 0.016202999 0.022746002
0.014694001 0.013652002 0.022822002
0.014635001 0.020066001 0.022691
0.014632001 0.015366001 0.022683002
0.014642001 0.017533002 0.022707002
0.014695001 0.024186002 0.022824001
0.014648001 0.024402002 0.02272
0.014716 0.023626 0.022872001
0.014695001 0.021666002 0.022824001
0.014677001 0.023936002 0.022785001
0.01473 0.010136 0.022904001
0.014851 0.025012 0.023205001
0.014943001 0.024572002 0.023433002
0.014804001 0.024349002 0.023088001
0.014720001 0.024989001 0.022880001
0.014771 0.012066 0.023004001
0.014839 0.017281001 0.023173001
0.014743 0.021836001 0.022935001
0.014846001 0.021521 0.023192
0.014745001 0.024419002 0.022941001
0.014764001 0.019817 0.022989001
0.014870001 0.019417999 0.023250001
0.014884001 0.021191001 0.023287002
0.014801 0.014270001 0.023078
0.014774001 0.013983 0.023011001
0.014884001 0.02407 0.023286
0.014810001 0.016648002 0.023102
0.014739001 0.012204001 0.022925001
0.014809 0.021276001 0.023101
0.014847001 0.017108001 0.023192
0.015062001 0.010914 0.023766002
0.015116001 0.012966 0.023924001
0.015194001 0.017268 0.024153002
0.015176 0.013072 0.024094
0.015189 0.011697 0.024131002
0.015167001 0.0084100002 0.024062002
0.015090001 0.010051 0.023846002
0.015065 0.0088960007 0.023774002
0.015249 0.021622 0.024318002
0.015168001 0.015631 0.024078
0.015153001 0.012811 0.024030002
0.015189 0.015602001 0.024138002
0.015137001 0.013425001 0.023984
0.015162 0.012507001 0.024054002
0.015188 0.0095990002 0.024123
0.015164 0.008932001 0.024054002
0.015156001 0.0071700006 0.024029
0.015117001 0.015712 0.023932001
0.015148001 0.013603 0.024018001
0.015119001 0.010854 0.023930002
0.015243 0.010224001 0.024296001
0.015234001 0.010092 0.024267001
0.015254 0.010198001 0.024330001
0.015247 0.014974001 0.024309002
0.015255 0.018325001 0.024335001
0.015264001 0.0099600004 0.024362002
0.015266 0.016250001 0.024370002
0.015247 0.013524001 0.024307
0.014973001 0.019978002 0.023511
0.015040001 0.019583002 0.023698
0.015053001 0.019881001 0.023735002
0.015092 0.022065002 0.023846002
0.015096 0.019696001 0.023855001
0.014988001 0.012131 0.023553001
0.015026 0.015371001 0.023658002
0.015040001 0.021309001 0.023700003
0.015131 0.022044001 0.023955001
0.015015001 0.015203001 0.023627002
0.015132001 0.024211003 0.023959002
0.014983 0.0092040012 0.023537003
0.014984 0.012863001 0.023542002
0.015000001 0.024151001 0.023587001
0.015016001 0.012502001 0.023630001
0.015084 0.023684001 0.023823
0.015005001 0.010903001 0.023600001
0.015004001 0.023902001 0.023600001
0.01503 0.013449001 0.023669003
0.015187001 0.023759002 0.024125
0.015096 0.014924001 0.023870002
0.015022001 0.010205001 0.023653001
0.015248001 0.025089001 0.024314001
0.015076001 0.015939001 0.023802001
0.015195 0.024845 0.024146002
0.015236001 0.02506 0.024276
0.015196001 0.021132002 0.024162002
0.015197 0.022570001 0.024162002
0.015318001 0.010535 0.024538001
0.015322001 0.011606 0.024553001
0.015362001 0.0070630005 0.024680002
0.015327 0.014894001 0.024569001
0.015289 0.017773002 0.024445001
0.015282 0.0066960002 0.024423001
0.015311001 0.0062230001 0.024515001
0.015277001 0.013341 0.024406001
0.015287001 0.017236002 0.024438001
0.015301 0.0070700003 0.024485001
0.015271001 0.0085280007 0.024387
0.015354001 0.0067840004 0.024657
0.015362001 0.0094360001 0.024681
0.015362001 0.011707 0.024681
0.015310002 0.023025 0.024512
0.015366001 0.024851002 0.024692001
0.015308 0.021928001 0.024507001
0.015291001 0.023176001 0.024450002
0.015374 0.0090550007 0.024719002
0.015343001 0.024592001 0.024616001
0.015308 0.021257002 0.024504
0.015363 0.023204001 0.024682
0.015349001 0.022904001 0.024636
0.015433 0.020787003 0.024939001
0.015418001 0.015419001 0.024883
0.015408001 0.015572 0.024843002
0.015451001 0.019501001 0.025006002
0.015429 0.021899002 0.024924001
0.015399001 0.0095819999 0.024811001
0.015381 0.022373 0.024745002
0.015417 0.018097 0.024878001
0.015422001 0.014869001 0.024896001
0.015449001 0.020777002 0.025001001
0.015503001 0.022819001 0.025199
0.015397001 0.014927001 0.024803001
0.015424 0.018807 0.024904
0.015424 0.012873 0.024905002
0.015390001 0.011986 0.024779001
0.015449001 0.018872 0.024998
0.015391001 0.015901001 0.024783002
0.015420001 0.020114001 0.024891002
0.01541 0.016446 0.024852
0.015538001 0.011753001 0.025336001
0.015538001 0.01671 0.025332002
0.015521001 0.012191 0.025271
0.015538001 0.0070080003 0.025334001
0.015525 0.017919002 0.025286
0.015518 0.011383001 0.025260001
0.015467001 0.0066130003 0.025068002
0.015515001 0.013524001 0.025249003
0.015512001 0.022222001 0.025234001
0.015514 0.011143 0.025243001
0.015448 0.0071100006 0.024994001
0.015493001 0.013768001 0.025165003
0.015441 0.011889 0.024967
0.015467001 0.012391 0.025065001
0.015513 0.014954002 0.025238002
0.015504001 0.018559001 0.025204001
0.015496001 0.017481001 0.025174001
0.015453001 0.0064320005 0.025014002
0.015468001 0.014815 0.025068002
0.015503001 0.0096470006 0.025201002
0.015415001 0.0074350005 0.024872001
0.015475001 0.0077760005 0.025097001
0.015433 0.0092600007 0.024940001
0.015505001 0.0093670003 0.025212001
0.015704 0.010135001 0.026095001
0.015713001 0.013262001 0.026144
0.015713001 0.0090300003 0.026147
0.015712 0.013185001 0.026140001
0.01571 0.015381 0.026131002
0.015691001 0.0042070001 0.026022
0.015626 0.0046490002 0.025727
0.015617 0.0074690003 0.025690002
0.015702 0.023291001 0.026099002
0.015682001 0.018789001 0.026000001
0.015694002 0.011983001 0.026046
0.015642 0.0069540003 0.025800001
0.015661001 0.018070001 0.025906002
0.015686 0.0077920002 0.026002003
0.015682001 0.016181001 0.025998
0.015703 0.019010002 0.026097002
0.015675001 0.011651001 0.02596
0.015654001 0.007615 0.025856001
0.015632 0.0066590002 0.025758
0.015689 0.015194001 0.026026001
0.015672 0.0065800003 0.025937002
0.015623 0.010721 0.025724001
0.015678002 0.014593001 0.025976
0.015670002 0.005285 0.025924001
0.015630001 0.0053810002 0.025746001
0.015571001 0.0060760006 0.025481002
0.015658 0.010204001 0.025877003
0.015615 0.0080820005 0.025683003
0.015697001 0.013037001 0.026061002
0.015651001 0.019701 0.025848001
0.015685001 0.025050001 0.025995001
0.015614001 0.014996001 0.025671002
0.015659001 0.019129001 0.025891002
0.015655 0.021781001 0.025852
0.015660001 0.019971002 0.025891002
0.015685001 0.023009002 0.026009003
0.015555001 0.015555001 0.025409002
0.015553001 0.017282 0.025399001
0.015656 0.022345001 0.025856001
0.015583001 0.019545002 0.025533002
0.01558 0.023957001 0.025518
0.015557001 0.0098400004 0.025417002
0.015561 0.023857001 0.025434
0.015551001 0.018510001 0.025389001
0.015601001 0.024904 0.025612
0.015578001 0.014841001 0.025510002
0.015606001 0.018906001 0.025635002
0.015544 0.010895001 0.025357002
0.015577001 0.016837001 0.025506001
0.015644001 0.022865999 0.025806
0.015552001 0.014108 0.025394
0.015631 0.019749001 0.025746001
0.015591 0.021963 0.025571
0.015538001 0.021114001 0.025333002
0.015630001 0.020774001 0.025742002
0.015605 0.016133001 0.025631001
0.015605 0.021497 0.025631001
0.015589001 0.024912002 0.025562001
0.015862001 0.016430002 0.027075002
0.015851 0.018420001 0.02699
0.015854999 0.019097 0.027018001
0.015807001 0.0047200001 0.026680002
0.015847001 0.010337001 0.026963001
0.015859 0.0065970006 0.027055001
0.015845001 0.01063 0.026949001
0.015826002 0.0064930003 0.026813
0.015841 0.003027 0.026925001
0.015833002 0.013454001 0.026862001
0.015843 0.004311 0.026937002
0.015862001 0.023729002 0.027072001
0.015853001 0.010366 0.027006002
0.015852001 0.018655002 0.027002001
0.015857002 0.01236 0.027035002
0.015849 0.0042460002 0.026983
0.015853001 0.0085450001 0.027012
0.015835 0.0083370004 0.026882002
0.015723001 0.023179002 0.026205001
0.01572 0.015930001 0.026186002
0.015782 0.0070010005 0.026531002
0.015748002 0.014493001 0.026340002
0.015765002 0.011423001 0.026433002
