# .PCD v0.7 - Point Cloud Data file format
VERSION 0.7
FIELDS x y z
SIZE 4 4 4
TYPE F F F
COUNT 1 1 1
WIDTH 1259
HEIGHT 1
VIEWPOINT 0 0 0 1 0 0 0
POINTS 1259
DATA ascii
0.0039268984 0.00016819574 0.02587438
-0.0076071266 0.013051369 0.014510014
-0.015603592 0.02335925 -0.00022267915
0.013445563 0.00016687585 -0.017696591
0.016617013 0.0001677437 -0.03222017
0.019788951 0.0001681881 -0.046743877
0.022960916 0.0001686287 -0.061267689
0.026133332 0.00016863251 -0.075791404
0.02930533 0.00016907312 -0.090315357
0.032477763 0.0001690674 -0.10483911
0.0038953144 0.00016844559 0.015773449
-0.015361331 0.019839898 0.0043156589
0.010295682 0.00016711617 -0.013521447
0.013493641 0.0001684475 -0.028168814
0.016692616 0.00016889001 -0.042816311
0.019892076 0.00016888429 -0.057463787
0.023091083 0.00016932488 -0.072111443
0.026290547 0.00016933061 -0.086758986
0.029489588 0.00016977692 -0.10140681
0.00063622009 0.00016871834 0.020272199
-0.013672625 0.015184644 0.0084671713
-0.012881881 0.017663568 -0.007916199
0.010316558 0.00016915894 -0.024047773
0.013543517 0.00016915513 -0.038821138
0.016769996 0.00016960145 -0.053594626
0.01999696 0.00016960908 -0.068368062
0.023223475 0.0001700554 -0.083141714
0.026450017 0.00017049408 -0.097915471
-0.0030054008 0.00016942978 0.026339246
-0.0092426939 0.0080983257 0.013387769
-0.015470386 0.016377259 -0.0014400636
0.0067593814 0.00016943742 -0.018365094
0.010013822 0.0001698761 -0.033266589
0.013268766 0.00016987229 -0.048168086
0.016523229 0.00017032433 -0.063069753
0.019778177 0.00017033196 -0.077971317
0.023032673 0.00017078783 -0.092873141
0.0262872 0.00017123223 -0.10777508
-0.0034279129 0.00017062188 0.017480779
-0.015245249 0.012750827 0.0046239132
-0.0085326033 0.010115015 -0.01207827
0.0064233905 0.00016971208 -0.027614789
0.0097057708 0.00017061997 -0.042646732
0.012989192 0.00017061997 -0.057678603
0.016272139 0.00017106248 -0.072710678
0.019555084 0.00017153169 -0.08774288
0.022838533 0.00017153169 -0.10277486
-0.0071685594 0.00017044831 0.023630003
-0.012694538 0.0073530735 0.010058518
-0.014298929 0.011598725 -0.0055724755
0.0027674914 0.00017136383 -0.021863332
0.006080417 0.00017091179 -0.037027832
0.0093928138 0.00017090036 -0.052192315
0.012704701 0.00017136002 -0.067356996
0.016016606 0.00017182542 -0.082521796
0.019328542 0.00017228699 -0.097686708
0.02264097 0.00017228318 -0.11285136
-0.0079686921 0.00017073633 0.016119352
-0.015583494 0.009029774 0.0022343332
-0.0020413811 0.00079606252 -0.014457375
0.0020536089 0.00017351151 -0.029779151
0.0053955442 0.00017351151 -0.045078922
0.0087374765 0.00017351533 -0.060378689
0.012080431 0.00017259218 -0.075678028
0.015422344 0.00017258454 -0.090977684
0.018763769 0.00017304994 -0.10627765
-0.012157501 0.00017290116 0.023911275
-0.013178051 0.0036300584 0.0092411581
-0.013866044 0.0069720806 -0.0063072895
-0.0020434237 0.00017430115 -0.022399945
0.0013285456 0.00017429353 -0.037837174
0.0047004977 0.00017430497 -0.053274415
0.0080724638 0.00017430497 -0.068711661
0.011444943 0.00017383958 -0.084148638
0.014816895 0.00017383958 -0.099585831
0.018188842 0.00017384149 -0.11502299
-0.013016746 0.00017274858 0.016266789
-0.015665129 0.0049100402 0.0014412118
-0.0062141623 0.00017463494 -0.014886937
-0.0028122112 0.00017510224 -0.030464128
0.00059032452 0.00017510224 -0.046041325
0.003993412 0.00017462923 -0.061618358
0.0073959352 0.00017462923 -0.077195503
0.010798453 0.00017463304 -0.092772633
0.014200975 0.00017463304 -0.10834978
-0.016983829 0.00017402269 0.022630407
-0.014404091 0.00082620623 0.0070473179
-0.012398981 0.0019552498 -0.008663536
-0.0066847717 0.00017544175 -0.024528101
-0.0032511188 0.00017544175 -0.040247764
0.00018253905 0.00017543793 -0.055967424
0.0036161826 0.00017544939 -0.071687095
0.0070498381 0.00017544939 -0.087406754
0.010484024 0.00017497063 -0.10312609
0.013917661 0.00017497255 -0.11884568
-0.017558873 0.00017531587 0.013246876
-0.015341648 0.0011254235 -0.0024926683
-0.010628214 0.00017531968 -0.018482495
-0.0071634799 0.00017580033 -0.034347255
-0.003698725 0.00017628098 -0.050212141
-0.00023335834 0.00017627336 -0.066076934
0.003232569 0.00017578888 -0.081941508
0.0066979085 0.00017579652 -0.097806275
0.010163264 0.00017578507 -0.11367103
-0.02129052 0.00017517853 0.018099308
-0.017794874 0.00017662812 0.0020871316
-0.014294044 0.00017420961 -0.013925592
-0.01079959 0.00017663384 -0.029938109
-0.0073019424 0.00017662812 -0.045950714
-0.0038042958 0.00017662431 -0.061963324
-0.00030665871 0.00017663575 -0.077975959
0.0031909849 0.00017663384 -0.09398856
0.0066886335 0.00017662812 -0.11000117
-0.024033874 0.00017554093 0.018194212
-0.020505378 0.00017699815 0.002031456
-0.016972234 0.00017504883 -0.014131806
-0.013444949 0.00017748642 -0.030294973
-0.0099144001 0.00017748642 -0.046458226
-0.0063838521 0.00017748642 -0.062621482
-0.0028532983 0.00017748261 -0.078784734
0.00067783077 0.00017699433 -0.094947681
0.0042083645 0.00017699433 -0.11111087
-0.026117181 0.00017637636 0.015027761
-0.022555204 0.00017786027 -0.0012885286
-0.018988485 0.0001758976 -0.017605238
-0.015427083 0.00017786027 -0.033921916
-0.011863016 0.00017786027 -0.050238606
-0.0082989587 0.00017786599 -0.066555299
-0.0047348919 0.00017786218 -0.082871981
-0.0011708288 0.00017786027 -0.099188671
0.0023932392 0.00017785645 -0.11550537
-0.027521532 0.00017774964 0.0085061304
-0.023921931 0.0001767502 -0.0079669766
-0.02032375 0.0001767502 -0.024439845
-0.016728234 0.00017874147 -0.040913068
-0.013130004 0.00017874528 -0.057386208
-0.0095317671 0.00017874528 -0.073859349
-0.0059335302 0.00017874147 -0.090332478
-0.0023353025 0.00017875481 -0.10680564
-0.031857308 0.00017763139 0.01516377
-0.028225735 0.00017863465 -0.0014684258
-0.024591297 0.00017764283 -0.018100912
-0.020958286 0.00017764092 -0.034733247
-0.017327294 0.00017914391 -0.051365986
-0.013694898 0.00017964936 -0.06799873
-0.010061187 0.00017914582 -0.084631078
-0.0064281318 0.00017914391 -0.10126361
-0.0027950837 0.00017914963 -0.11789615
-0.031511713 0.00017955208 0.00011856842
-0.027840985 0.00017802812 -0.016676538
-0.024173189 0.00017853928 -0.033471446
-0.020506734 0.00018005371 -0.05026675
-0.016838171 0.00018006135 -0.067061886
-0.013169595 0.00018005562 -0.083857015
-0.0095010307 0.00018006135 -0.10065216
-0.0058324584 0.00018005754 -0.11744729
-0.03412009 0.00017944718 -0.001655407
-0.030414607 0.00017893982 -0.018616155
-0.026709886 0.00017894364 -0.035576805
-0.023007285 0.00018047143 -0.052537866
-0.019303216 0.00018098069 -0.069498949
-0.015598433 0.00018098642 -0.086459883
-0.011893647 0.00018098259 -0.10342081
-0.039774545 0.0001798687 0.010239117
-0.03603287 0.00017985917 -0.0068906522
-0.032291215 0.00017986679 -0.024020404
-0.028549548 0.00017985536 -0.041150149
-0.024810076 0.00018142319 -0.058280397
-0.021068364 0.00018142129 -0.075410374
-0.017326662 0.0001814251 -0.092540331
-0.013584949 0.00018141748 -0.1096703
-0.041009236 0.00018132974 0.0016106644
-0.037229095 0.00018080141 -0.015691681
-0.033449762 0.00018081094 -0.032993946
-0.029670419 0.00018081284 -0.050296206
-0.025893282 0.00018237306 -0.067599088
-0.022113897 0.00018237687 -0.084901564
-0.018334504 0.00018237687 -0.10220405
-0.044939891 0.00018177414 0.0050412561
-0.041122098 0.00018177224 -0.012437008
-0.037304316 0.00018177605 -0.02991529
-0.033486526 0.00018177414 -0.047393549
-0.029670261 0.00018282891 -0.064872228
-0.025852442 0.00018283082 -0.082350649
-0.022034619 0.00018283082 -0.099829078
-0.018216791 0.0001828251 -0.11730751
-0.0443229 0.00018223192 -0.012647026
-0.040466715 0.00018276979 -0.03030492
-0.036609676 0.00018276216 -0.047962829
-0.032754224 0.0001838379 -0.065621145
-0.028897157 0.00018382646 -0.0832792
-0.025040098 0.00018382646 -0.10093727
-0.049929231 0.00018322564 -0.002156666
-0.046032175 0.00018323326 -0.019997861
-0.042135108 0.00018322373 -0.037839059
-0.038238872 0.00018377305 -0.055680431
-0.034342583 0.00018431283 -0.073521934
-0.03044549 0.00018431664 -0.091363318
-0.026548389 0.00018430901 -0.10920465
-0.047383524 0.00018425751 -0.02930581
-0.043445561 0.0001842537 -0.047334231
-0.039507609 0.00018425751 -0.065362632
-0.035571277 0.00018533898 -0.083391622
-0.031633291 0.0001853447 -0.10142019
-0.047967587 0.00018529702 -0.042455096
-0.043987866 0.00018529511 -0.060674686
-0.040008988 0.00018584443 -0.078894533
-0.036029264 0.00018585015 -0.09711422
-0.048161935 0.00018636324 -0.057727728
-0.04413956 0.00018635941 -0.076142602
-0.040118042 0.00018691827 -0.094557822
-0.047547314 0.00018746567 -0.077054195
-0.043481361 0.00018745424 -0.095668562
0.050960526 0.078830421 -0.065741323
0.050960533 0.078830414 -0.082046814
0.050960168 0.076450557 -0.067270063
0.050960165 0.076450564 -0.083473712
0.050959829 0.074100241 -0.06716948
0.050959826 0.074100249 -0.083272584
0.050958961 0.071779512 -0.065469846
0.050958965 0.071779512 -0.081473686
0.050958633 0.069486633 -0.062200397
0.050958633 0.069486633 -0.078106128
0.043669034 0.077624306 -0.096348278
0.050958306 0.067221701 -0.073198736
0.050958306 0.067221701 -0.089007556
0.050957967 0.064984202 -0.066779464
0.050957967 0.06498421 -0.082492568
0.047162138 0.06682054 -0.05909685
0.050957646 0.062773637 -0.074494146
0.049544614 0.064280264 -0.090524405
0.050957322 0.060589533 -0.065038927
0.050957311 0.060589537 -0.080563985
0.040372603 0.071702756 -0.099645622
0.050957009 0.058431402 -0.069585636
0.050957002 0.058431406 -0.085018352
0.03285617 0.077144444 -0.1071224
0.0509567 0.056298792 -0.072544426
0.050956685 0.056298804 -0.087885901
0.043842137 0.061320968 -0.059096918
0.050956395 0.054191258 -0.073943317
0.050880376 0.054267436 -0.089216225
0.043012403 0.059945788 -0.059096918
0.050956078 0.052108355 -0.073809631
0.050956078 0.052108355 -0.088971809
0.025894033 0.076835193 -0.11405976
0.05095578 0.050049655 -0.072170094
0.050955791 0.050049648 -0.087244168
0.029426394 0.070960253 -0.11055317
0.050955489 0.048014726 -0.069050789
0.050955489 0.048014726 -0.084037803
0.035442669 0.06284605 -0.10457712
0.050955191 0.046003178 -0.064477235
0.050955191 0.046003178 -0.07937818
0.043333542 0.053175565 -0.096737094
0.05095489 0.044014603 -0.059955906
0.050954901 0.044014595 -0.074771754
0.050357092 0.044568293 -0.089759469
0.025393853 0.06768956 -0.1145782
0.050954141 0.042049032 -0.070217714
0.050954133 0.042049035 -0.084949501
0.034307592 0.057223003 -0.10572087
0.050953858 0.040105231 -0.065715007
0.050953858 0.040105231 -0.080363624
0.042192739 0.047964212 -0.097885594
0.050953574 0.038183253 -0.0015406953
0.050953574 0.03818325 -0.016107079
0.050953582 0.038183246 -0.030673452
0.050953578 0.038183246 -0.04523984
0.050953574 0.038183253 -0.05980622
0.050953567 0.038183257 -0.074372597
0.050953574 0.038183253 -0.088938974
0.027194401 0.059155088 -0.1128035
0.050953295 0.036282729 -0.0076111951
0.050953295 0.036282729 -0.022096261
0.050953291 0.036282733 -0.036581326
0.050953295 0.036282729 -0.051066395
0.050953303 0.036282726 -0.065551437
0.050953299 0.036282726 -0.080036506
0.042986698 0.043201707 -0.097105168
0.048616506 0.036399793 0.0031601563
0.050953023 0.034403306 -0.012173844
0.050953031 0.034403302 -0.02657849
0.050953031 0.034403298 -0.040983137
0.050953031 0.034403302 -0.055387776
0.050953023 0.034403306 -0.069792435
0.050953023 0.034403306 -0.084197082
0.036235627 0.046978895 -0.10382275
0.050952759 0.032544639 -0.00092846685
0.050952762 0.032544635 -0.015253587
0.050952762 0.032544635 -0.029578703
0.050952751 0.032544643 -0.043903835
0.050952766 0.032544635 -0.058228947
0.050952766 0.032544635 -0.072554059
0.050952766 0.032544635 -0.086879179
0.031585936 0.048824355 -0.10845089
0.050952483 0.030706378 -0.0026284105
0.050952487 0.030706376 -0.016874874
0.050952487 0.030706376 -0.03112134
0.050952487 0.030706376 -0.045367803
0.050952483 0.03070638 -0.059614275
0.05095249 0.030706374 -0.073860735
0.050952483 0.03070638 -0.088107206
0.029443832 0.048491411 -0.11058615
0.05095223 0.028888194 -0.002892914
0.050952222 0.028888199 -0.017061582
0.050952222 0.028888198 -0.031230249
0.050952222 0.028888198 -0.045398928
0.05095223 0.028888194 -0.059567586
0.05095223 0.028888194 -0.073736265
0.050952215 0.028888203 -0.087904945
0.029980859 0.045944359 -0.11005658
0.050951973 0.027089762 -0.00033619691
0.050951965 0.027089765 -0.014427917
0.050951958 0.027089767 -0.028519636
0.050951965 0.027089763 -0.042611353
0.050951958 0.027089767 -0.056703076
0.050951965 0.027089765 -0.070794791
0.050951965 0.027089765 -0.084886514
0.035608303 0.039362926 -0.10446452
0.043791369 0.030943125 0.0079917954
0.050951708 0.02531076 -0.0090195891
0.050951712 0.025310759 -0.023035189
0.050951708 0.02531076 -0.037050784
0.050951704 0.025310762 -0.051066387
0.050951701 0.025310764 -0.065081991
0.050951701 0.025310764 -0.079097591
0.045218304 0.029820692 -0.094912276
0.030723227 0.039196823 0.021134881
0.050951451 0.023550872 -0.0022753372
0.050951444 0.023550875 -0.016215634
0.050951447 0.023550874 -0.030155936
0.050951455 0.02355087 -0.044096235
0.050951447 0.023550874 -0.05803654
0.05095144 0.023550879 -0.07197684
0.050951004 0.02355122 -0.085917257
0.034068543 0.036609311 -0.10600484
0.042350687 0.028350279 0.0094322665
0.050951201 0.021809792 -0.0080823898
0.050951201 0.021809792 -0.0219482
0.050951205 0.021809792 -0.035814006
0.050951198 0.021809796 -0.049679805
0.050951198 0.021809796 -0.063545614
0.050951205 0.021809792 -0.077411421
0.047987569 0.024063561 -0.092166573
0.024006639 0.042300493 -0.11601688
0.047730662 0.022494774 0.0040154881
0.050950948 0.020087225 -0.011069299
0.050950948 0.020087227 -0.024861403
0.050950941 0.020087229 -0.038653504
0.050950941 0.020087229 -0.052445598
0.050950948 0.020087225 -0.066237696
0.050950512 0.020087553 -0.080029897
0.044143114 0.025176894 -0.095994115
0.023714902 0.038398437 0.028170427
0.050473291 0.018733721 0.0012522164
0.050950259 0.018383199 -0.012652569
0.050950255 0.018383201 -0.026371792
0.050950252 0.018383203 -0.040091012
0.050950255 0.018383201 -0.053810228
0.050950259 0.018383199 -0.067529455
0.050950255 0.018383201 -0.081248678
0.042343579 0.024708234 -0.097787678
0.024511635 0.035793535 0.027364038
0.050910972 0.016724968 0.00080757146
0.050950017 0.016696762 -0.012854612
0.050950013 0.016696766 -0.026501678
0.050950009 0.01669677 -0.040148746
0.050950009 0.01669677 -0.053795803
0.050950021 0.016696762 -0.067442857
0.050950013 0.016696766 -0.081089921
0.042717371 0.022643309 -0.097420037
0.025292311 0.033241119 0.026573908
0.050949775 0.015027985 0.00052110676
0.050949778 0.015027981 -0.013054543
0.050949775 0.015027985 -0.026630199
0.050949786 0.015027978 -0.040205859
0.050949775 0.015027985 -0.053781528
0.050949771 0.015027985 -0.06735719
0.050949771 0.015027985 -0.080932841
0.043085303 0.020610636 -0.09705814
0.0260568 0.030740052 0.025799837
0.05094954 0.013376568 0.00025260926
0.05094954 0.013376568 -0.013252392
0.05094954 0.013376568 -0.026757389
0.050949533 0.013376572 -0.040262394
0.05094954 0.013376568 -0.053767394
0.050949544 0.013376565 -0.067272387
0.05094954 0.013376568 -0.080777392
0.043447547 0.018609451 -0.096701846
0.023724884 0.03040009 0.028140405
0.050016288 0.012381684 0.0016952211
0.050949305 0.01174226 -0.01210468
0.050949302 0.01174226 -0.02553975
0.050949305 0.01174226 -0.038974829
0.050949309 0.011742257 -0.052409898
0.050949309 0.011742257 -0.065844968
0.050949298 0.011742264 -0.079280049
0.045873497 0.015220886 -0.094292745
0.021982437 0.031594247 -0.11805774
0.045955405 0.013486835 0.0057758489
0.050949067 0.010124789 -0.0096322065
0.050949071 0.010124787 -0.022998078
0.050949071 0.010124787 -0.036363937
0.050949071 0.010124787 -0.049729809
0.050949063 0.01012479 -0.063095674
0.050949071 0.010124787 -0.076461531
0.050127514 0.01067791 -0.09006504
0.027925869 0.025625443 -0.11214946
0.041688085 0.01464816 0.010063919
0.05094884 0.0085238917 -0.007185074
0.050948843 0.0085238917 -0.020482449
0.05094884 0.0085238917 -0.033779811
0.050948847 0.008523888 -0.047077179
0.05094884 0.0085238917 -0.060374551
0.050948847 0.008523888 -0.073671907
0.050948828 0.0085238991 -0.086969286
0.033396915 0.02013123 -0.10671112
0.037197661 0.0158704 0.014575883
0.050948612 0.0069393236 -0.0047629015
0.050948616 0.0069393236 -0.01799247
0.050948612 0.0069393236 -0.03122204
0.050948612 0.0069393236 -0.044451602
0.05094862 0.0069393199 -0.057681169
0.050948612 0.0069393236 -0.070910737
0.05094862 0.0069393199 -0.084140301
0.038449734 0.015057194 -0.10168883
0.029662618 0.018946504 0.022149423
0.050948381 0.0053708325 -0.0010490571
0.050948385 0.0053708307 -0.014211518
0.050948385 0.0053708307 -0.027373968
0.050948385 0.0053708307 -0.040536433
0.050948385 0.0053708307 -0.053698882
0.050948378 0.0053708344 -0.066861346
0.050948389 0.0053708269 -0.080023788
0.045177232 0.0090515679 -0.095000274
0.021597886 0.024090042 -0.11845735
0.047826219 0.0057731136 0.0038782579
0.050948165 0.0038181706 -0.010468724
0.050948169 0.0038181688 -0.023564752
0.050948169 0.0038181688 -0.036660764
0.050948162 0.0038181727 -0.049756784
0.050948165 0.0038181706 -0.062852807
0.050948169 0.0038181688 -0.075948827
0.050947748 0.0038184302 -0.089044973
0.02996261 0.016959194 -0.11013953
0.041374139 0.0081663309 0.010362938
0.050947946 0.0022811014 -0.0067635272
0.050947942 0.0022811033 -0.019793779
0.050947942 0.0022811051 -0.032824036
0.050947942 0.0022811033 -0.045854282
0.050947942 0.0022811051 -0.058884539
0.050947946 0.0022811014 -0.0719148
0.050947938 0.002281107 -0.084945053
0.037441239 0.010583975 -0.10270353
0.034358721 0.010768628 0.017413536
0.050947309 0.00075964932 -0.0030952073
0.050947309 0.00075965124 -0.016060388
0.050947301 0.00075965503 -0.029025573
0.050947309 0.00075964932 -0.041990764
0.050947301 0.00075965503 -0.054955948
0.050947309 0.00075964932 -0.067921132
0.050947305 0.00075965311 -0.080886327
0.044166565 0.0048509161 -0.096016511
0.026703369 0.013608296 0.025107278
0.050491568 -0.00047720148 0.00071191031
0.050491568 -0.00047720148 -0.012232659
0.050491571 -0.0004772034 -0.025177235
0.050491568 -0.00047720148 -0.038121819
0.050491568 -0.00047719959 -0.051066395
0.050491571 -0.0004772034 -0.064010955
0.050491568 -0.00047719959 -0.076955542
0.050246928 -0.00033234217 -0.089970782
0.028981101 0.012259605 -0.1111282
0.04291461 0.0024280588 0.0088015981
0.047913969 -0.00047651294 -0.0064330944
0.047913969 -0.00047651294 -0.019560538
0.047913965 -0.00047650913 -0.032687973
0.047913965 -0.00047650913 -0.045815416
0.047913965 -0.00047650913 -0.058942866
0.047913972 -0.00047651294 -0.072070293
0.047913548 -0.00047626498 -0.085197836
0.038638201 0.0049126055 -0.10152408
0.033562206 0.006192965 0.018201776
0.045262065 -0.00047555353 -0.00046717073
0.045262065 -0.00047555353 -0.013782757
0.045262061 -0.00047555164 -0.027098337
0.045262065 -0.00047555353 -0.04041392
0.045262072 -0.00047555735 -0.053729504
0.045262061 -0.00047555164 -0.067045093
0.045262061 -0.00047555164 -0.080360673
0.045261618 -0.00047529605 -0.093676396
0.024987845 0.011080054 -0.11510889
0.042532101 -0.00047404293 0.0056726229
0.042533033 -0.0004745617 -0.0078369454
0.042533025 -0.00047455789 -0.021346154
0.042533033 -0.0004745617 -0.034855347
0.042533036 -0.00047456363 -0.04836455
0.042533021 -0.000474556 -0.061873753
0.042533029 -0.00047455981 -0.075382955
0.042533029 -0.00047455981 -0.088892147
0.035054155 0.0037065088 -0.10509719
0.039722983 -0.00047327427 0.011993058
0.039723944 -0.0004738064 -0.0017158433
0.039723944 -0.0004738064 -0.015424329
0.039723933 -0.00047379878 -0.029132813
0.039723944 -0.00047380451 -0.0428413
0.039723944 -0.00047380451 -0.056549784
0.039723467 -0.00047354319 -0.070258334
0.039723456 -0.00047353556 -0.083966874
0.039722987 -0.00047327808 -0.097675547
0.030112956 0.0031380388 0.021657549
0.036828272 -0.00047170068 0.0045895008
0.036830239 -0.00047275735 -0.0093250275
0.036830239 -0.00047275927 -0.023238817
0.036830239 -0.00047275735 -0.0371526
0.036830239 -0.00047275735 -0.051066387
0.036830239 -0.00047275735 -0.064980172
0.036829736 -0.00047248651 -0.078894064
0.03682974 -0.00047248843 -0.092807882
0.031365506 0.0024647466 -0.10877489
0.033847015 -0.0004708748 0.012498234
0.033847526 -0.00047114183 -0.0016274148
0.033848546 -0.0004716797 -0.015753068
0.033848546 -0.0004716797 -0.0298784
0.03384855 -0.00047168162 -0.044003721
0.033848029 -0.00047140697 -0.058129076
0.033848546 -0.0004716797 -0.072254375
0.033848036 -0.00047140886 -0.086379826
0.033848036 -0.00047140886 -0.10050521
0.030773722 -0.00047001842 0.020651117
0.030772135 -0.00046919825 0.006308205
0.030775312 -0.00047084049 -0.008036335
0.030775312 -0.00047083668 -0.022379685
0.030775316 -0.00047084049 -0.036723036
0.030774266 -0.00047029878 -0.051066387
0.03077478 -0.00047056391 -0.065409802
0.030774791 -0.00047057154 -0.07975319
0.030774249 -0.00047029115 -0.094096743
0.030773722 -0.00047001842 -0.10844041
0.027602434 -0.00046831134 0.014491952
0.027604075 -0.00046914103 -7.7110293e-05
0.027605187 -0.00046970561 -0.014645722
0.02760518 -0.0004697018 -0.029213997
0.027603526 -0.00046886064 -0.043782182
0.027604623 -0.0004694176 -0.058350556
0.027604623 -0.0004694176 -0.07291887
0.027604079 -0.00046914484 -0.087487303
0.027604068 -0.00046913722 -0.10205566
0.024332333 -0.00046767428 0.022936089
0.024330048 -0.00046654322 0.0081364522
0.024334615 -0.00046880535 -0.0066655236
0.024334608 -0.00046880153 -0.021465814
0.024332901 -0.00046795656 -0.036265943
0.024334051 -0.00046852877 -0.051066395
0.024333473 -0.00046823884 -0.065866776
0.024333464 -0.00046823503 -0.080667183
0.024332896 -0.00046795275 -0.095467731
0.024332901 -0.00046795656 -0.11026818
0.020954043 -0.00046587375 0.018118547
0.020953458 -0.00046558955 0.0030785333
0.020957597 -0.00046759797 -0.011962712
0.020957004 -0.00046730807 -0.027002499
0.020956999 -0.00046730426 -0.042042438
0.020956988 -0.00046729852 -0.057082366
0.020956403 -0.00046701814 -0.072122373
0.020956406 -0.00046702198 -0.087162361
0.02095582 -0.00046673397 -0.10220253
0.020955808 -0.00046672823 -0.11724257
0.017465133 -0.00046430019 0.013142128
0.017463902 -0.00046371462 -0.0021452485
0.017469427 -0.00046633914 -0.017434221
0.017469427 -0.00046634104 -0.032721568
0.017468816 -0.00046605302 -0.048008908
0.017468814 -0.00046605113 -0.063296311
0.017468192 -0.00046575358 -0.078583822
0.017467596 -0.0004654713 -0.093871444
0.017466981 -0.00046517755 -0.10915916
0.013863927 -0.00046475412 0.021986473
-0.007734213 0.0095875897 0.013703484
0.013865191 -0.0004653435 -0.0091001512
0.013864554 -0.00046504595 -0.024643116
0.013864554 -0.00046504595 -0.040186219
0.013863923 -0.00046475223 -0.055729337
0.013862645 -0.00046416096 -0.071272649
0.013862005 -0.00046386148 -0.086816072
0.013862005 -0.00046385959 -0.10235939
0.013862649 -0.00046416285 -0.11790249
0.010134364 -0.00046250536 0.013745598
-0.0140472 0.010552431 0.004716408
0.010137682 -0.00046401599 -0.017870629
0.010137006 -0.00046370507 -0.033678077
0.010134364 -0.00046250536 -0.049485598
0.010133709 -0.00046220591 -0.065293461
0.010134364 -0.00046250536 -0.081101216
0.010134365 -0.00046250536 -0.096909016
0.010135032 -0.00046281054 -0.11271657
0.0062776818 -0.00046110156 0.021300027
-0.011080242 0.0072750668 0.010686699
-0.012415635 0.0078702336 -0.0066565629
0.0062776799 -0.00046109964 -0.026944254
0.006276296 -0.00046048357 -0.043025613
0.0062769838 -0.00046079257 -0.05910714
0.0062776837 -0.00046110156 -0.075188525
0.006278371 -0.00046140674 -0.091269799
0.0062783635 -0.0004614029 -0.10735115
0.0022865629 -0.00046027376 0.027483476
-0.0069048693 0.0035467474 0.01424804
-0.014308712 0.0067744642 -0.0010827103
0.0022836954 -0.00045902256 -0.021609724
0.0022844125 -0.00045933534 -0.037974592
0.0022844125 -0.00045933534 -0.054339338
0.0022851278 -0.00045964814 -0.070703998
0.0022858449 -0.00045995906 -0.08706855
0.0022865564 -0.00046026995 -0.10343298
-0.0018483468 -0.00045910265 0.030557321
-0.0052277665 0.00098157127 0.015074746
-0.014483 0.0049271509 0.00050899509
-0.0018491126 -0.00045877267 -0.019416258
-0.0018513423 -0.00045782281 -0.036074039
-0.0018505974 -0.00045813943 -0.052732203
-0.0018505936 -0.00045814135 -0.069390297
-0.0018498383 -0.0004584656 -0.086048253
-0.0018491021 -0.00045877841 -0.1027061
-0.0061349976 -0.00045755389 0.030351328
-0.0074900896 0.00010718346 0.013846398
-0.014259813 0.0029284821 -0.0015532838
-0.0061373333 -0.00045657731 -0.020534363
-0.0061342241 -0.00045787622 -0.037496816
-0.0061373282 -0.00045658113 -0.054458834
-0.0061365645 -0.00045689775 -0.07142099
-0.0061357785 -0.00045722772 -0.088382997
-0.0061357748 -0.00045722965 -0.10534509
-0.010581079 -0.0004559498 0.028409945
-0.010625643 -0.00043779946 0.011146645
-0.013078013 0.0005610123 -0.0055713425
-0.010584326 -0.00045462803 -0.023422003
-0.010583504 -0.00045496371 -0.040699776
-0.010581883 -0.00045562175 -0.057977397
-0.010582693 -0.00045529369 -0.075255029
-0.010581883 -0.00045562175 -0.092532463
-0.010581087 -0.00045594599 -0.10980976
-0.015196501 -0.0004539509 0.022874299
-0.015192286 -0.00045562556 0.0052681887
-0.015203271 -0.0004512539 -0.012334248
-0.015198182 -0.00045328715 -0.029940302
-0.01519819 -0.00045328142 -0.04754537
-0.015197349 -0.0004536114 -0.065150388
-0.015196494 -0.00045395663 -0.082755253
-0.015195657 -0.00045428661 -0.10035998
-0.015194812 -0.0004546261 -0.11796454
-0.019986726 -0.000453249 0.013534646
-0.019996434 -0.00044947246 -0.0044078636
-0.019994667 -0.0004501591 -0.022353696
-0.019991141 -0.0004515324 -0.040299311
-0.019990247 -0.00045187952 -0.058244403
-0.019989371 -0.00045222093 -0.076189339
-0.019988492 -0.00045256235 -0.094134122
-0.019987613 -0.00045290185 -0.11207875
-0.0249692 -0.00045111659 0.012977456
-0.024976574 -0.00044831849 -0.0053191911
-0.024975652 -0.00044866564 -0.02361818
-0.024971036 -0.00045041658 -0.04191719
-0.024971964 -0.00045006946 -0.060215622
-0.024971033 -0.00045041851 -0.07851398
-0.024970127 -0.00045076755 -0.096812196
-0.030151919 -0.00044890214 0.017997636
-0.030150961 -0.00044925691 -0.00066855625
-0.030156733 -0.00044712069 -0.019333558
-0.030156739 -0.00044711688 -0.037999924
-0.030153845 -0.00044819262 -0.056666214
-0.030152887 -0.00044854739 -0.075332239
-0.030152883 -0.00044854928 -0.093998268
-0.03554621 -0.00044695855 0.00988934
-0.035551246 -0.00044514085 -0.0091583831
-0.035550248 -0.00044549754 -0.028207576
-0.03555024 -0.00044550325 -0.047256589
-0.035548225 -0.00044623186 -0.066305451
-0.035547208 -0.00044659807 -0.085354127
-0.041167378 -0.00044456104 0.0053312993
-0.041170537 -0.00044345285 -0.014115659
-0.041169487 -0.00044382099 -0.033563487
-0.041169487 -0.00044382099 -0.053011157
-0.041168433 -0.00044419483 -0.072458714
-0.041167386 -0.0004445572 -0.091906108
-0.047030073 -0.00044168474 -0.011339471
-0.047028963 -0.00044207004 -0.031203026
-0.047028974 -0.00044206431 -0.051066391
-0.047028966 -0.0004420662 -0.070929751
-0.047027867 -0.00044244004 -0.090792924
0.050897341 0.077230737 -0.061126996
0.05089508 0.07886368 -0.076878391
0.050896805 0.075836435 -0.064182974
0.050895087 0.077447906 -0.07999064
0.050897472 0.073972687 -0.062578194
0.050895773 0.075548194 -0.078294635
0.046783216 0.074440129 -0.058983568
0.050896369 0.073352724 -0.073448718
0.04997167 0.075537495 -0.089896932
0.050896931 0.071188919 -0.068672687
0.050895233 0.072722383 -0.084501378
0.050898492 0.068763338 -0.060894191
0.050896268 0.070243582 -0.076438315
0.044068608 0.076110661 -0.09576524
0.050897505 0.067670748 -0.066992633
0.050895818 0.069138996 -0.082688287
0.033371843 0.075244509 -0.05892409
0.050897513 0.066283986 -0.07002338
0.050896384 0.067731023 -0.085774265
0.039850108 0.069802478 -0.0589591
0.050897758 0.064755522 -0.071503222
0.05089663 0.066177242 -0.087260842
0.03969913 0.068137929 -0.05896055
0.050897643 0.063093126 -0.071430318
0.050896529 0.064485341 -0.087146059
0.032935154 0.070040368 -0.05892865
0.05089831 0.061304785 -0.06981644
0.050897207 0.062663577 -0.085442342
0.017930944 0.076170631 -0.058855619
0.050898641 0.059400793 -0.066687949
0.05089755 0.060722619 -0.082177602
0.031596217 0.073148973 -0.10816991
0.050899945 0.057264935 -0.060578104
0.050898321 0.058543053 -0.075840801
0.045912161 0.06264621 -0.093951851
0.0325028 0.064887747 -0.05893315
0.050899092 0.056400836 -0.069612622
0.050898004 0.05767389 -0.08511553
0.024315458 0.073690511 -0.11540768
0.050900057 0.054173991 -0.061987799
0.050898459 0.05540058 -0.077217899
0.043196257 0.060809009 -0.096654803
0.032217138 0.061480809 -0.0589361
0.050899427 0.053172592 -0.069478497
0.050898351 0.054389838 -0.084900483
0.025098758 0.069357745 -0.11463515
0.050900389 0.05098886 -0.061892848
0.050899334 0.052160807 -0.077044614
0.043732785 0.057071947 -0.096126728
0.01716115 0.065028705 -0.058866099
0.05090018 0.0497481 -0.066332251
0.050899122 0.050903607 -0.081581958
0.033621274 0.060881063 -0.10617419
0.038364127 0.053391825 -0.058972891
0.05089999 0.048502374 -0.070789389
0.050899453 0.049641047 -0.086137496
0.022111151 0.065216951 -0.11761172
0.050015349 0.04647122 -0.059032381
0.05089999 0.047141246 -0.073745012
0.050651062 0.048379984 -0.089260288
-0.010439299 0.071532562 -0.058737684
0.050901029 0.044712473 -0.061705731
0.050900538 0.045778491 -0.076703385
0.044778645 0.049783379 -0.095097072
0.050907496 0.038925357 -0.00074954989
-0.033280343 0.079242639 -0.058628745
0.049709909 0.043493677 -0.059034698
0.050900839 0.043992277 -0.07359162
0.050899807 0.045057863 -0.088912763
0.046944868 0.038767353 0.0048851399
0.050906755 0.038020339 -0.0086946758
0.050905354 0.038930293 -0.022070698
-0.033326127 0.076925769 -0.058631275
0.049558118 0.042011321 -0.059035785
0.050901279 0.042429477 -0.073515482
0.050900243 0.043468826 -0.088796996
0.042379029 0.038876981 0.009465741
0.050907701 0.03631318 -0.0048417705
0.050906338 0.037193261 -0.018076345
0.050904922 0.038098361 -0.031687096
0.050903469 0.039029557 -0.045690302
0.050901968 0.039987996 -0.060103197
0.050900951 0.040974665 -0.074943811
0.048599456 0.043010585 -0.091307834
0.039272521 0.038428888 0.01258181
0.050907958 0.034712154 -0.0023315544
0.050906587 0.035565425 -0.015463521
0.050905187 0.036442816 -0.028966835
0.050903752 0.037345376 -0.042857453
0.050902776 0.038273986 -0.057152163
0.050901808 0.03923 -0.071868882
0.050900783 0.040214673 -0.087026604
0.030828854 0.039698225 0.021054707
0.047321055 0.034262072 0.0045027356
0.050907411 0.033703584 -0.0089302408
0.050906036 0.034546711 -0.022215992
0.050905135 0.035413582 -0.035879154
0.050903682 0.036305651 -0.049936108
0.050902192 0.037223801 -0.064404108
0.050901182 0.038168978 -0.07930126
0.03959576 0.043944187 -0.10025875
0.036245923 0.036382288 0.015616238
0.050908588 0.031716336 5.579758e-05
0.050907232 0.032521851 -0.012946297
0.050905854 0.033349976 -0.026313309
0.050904442 0.034201674 -0.040060803
0.050903499 0.035077754 -0.054205149
0.050902527 0.035979494 -0.068763822
0.050901517 0.036908053 -0.083755285
0.029155888 0.046920884 -0.1106342
0.034707721 0.035342149 0.017158428
0.050524946 0.030375669 0.0012841302
0.050907802 0.031016748 -0.011701569
0.050906438 0.031820741 -0.025001351
0.050905023 0.032647539 -0.038678292
0.050903577 0.033498116 -0.052748643
0.050902605 0.034373309 -0.06722948
0.050901625 0.035274416 -0.082139105
0.033217426 0.043377161 -0.10660125
0.033152547 0.034290534 0.018717634
0.049175534 0.029383756 0.0026369554
0.050907873 0.029522846 -0.010465927
0.050907016 0.030302865 -0.023699138
0.050905619 0.031105105 -0.037306178
0.050904177 0.031930335 -0.051303145
0.050903235 0.032779351 -0.065706857
0.050902244 0.033653412 -0.080535404
0.037065774 0.040019449 -0.10278001
0.031580113 0.033227246 0.020294126
0.047812354 0.028381737 0.0040035672
0.050908439 0.028039662 -0.0092393272
0.050907087 0.028796395 -0.022406587
0.050905701 0.02957443 -0.035944439
0.050904792 0.030374482 -0.04986864
0.05090332 0.0311979 -0.064196154
0.050902359 0.032045305 -0.07894446
0.040716667 0.036833715 -0.099154539
0.029989522 0.032152306 0.021888364
0.046435226 0.027369445 0.0053841975
0.050908994 0.026567262 -0.008021649
0.050907653 0.027300851 -0.021123532
0.050906278 0.028055009 -0.034592796
0.050904855 0.028830616 -0.048445117
0.050903924 0.029628407 -0.062696896
0.050902959 0.030449549 -0.077365749
0.044185501 0.033806842 -0.095709845
0.028381698 0.031065093 0.023500333
0.045043897 0.02634673 0.00677903
0.050909057 0.025105691 -0.0068127485
0.05090772 0.025816455 -0.019849913
0.050906856 0.026546901 -0.033251237
0.050905459 0.027298216 -0.047032237
0.050904021 0.028071119 -0.061209273
0.05090306 0.028866373 -0.075799473
0.047485016 0.030927429 -0.092432991
0.02675575 0.029965611 0.025130497
0.043637648 0.025313595 0.0081884004
0.050909612 0.023654502 -0.0056126062
0.05090829 0.024342749 -0.018585602
0.050906923 0.025050152 -0.031919673
0.050905541 0.025777517 -0.045630071
0.05090462 0.026525529 -0.059732851
0.050903678 0.027295263 -0.07424514
0.050628375 0.028184576 -0.089311525
0.025111344 0.028853657 0.026779149
0.042217281 0.024269536 0.0096123544
0.050909672 0.022213906 -0.004421059
0.050908845 0.022879789 -0.017330511
0.050907508 0.02356429 -0.030597884
0.050906118 0.024268044 -0.044238333
0.050905216 0.024991693 -0.058267653
0.050903752 0.025736453 -0.072702989
0.05090332 0.026502712 -0.087561607
0.02344751 0.027729208 0.028446805
0.040782064 0.023214554 0.01105119
0.050910212 0.020783478 -0.0032380791
0.050908905 0.021427609 -0.016084531
0.050907571 0.022089534 -0.029285885
0.050906695 0.022769844 -0.04285698
0.050905295 0.023469638 -0.056813698
0.050904363 0.024189435 -0.071172476
0.050903399 0.024930276 -0.085951053
0.024262426 0.034689911 -0.11551715
0.039331745 0.022148479 0.012505177
0.050910752 0.019363264 -0.0020635568
0.050909467 0.01998578 -0.014847565
0.050908133 0.020625437 -0.027983466
0.050906781 0.021282939 -0.04148598
0.050905887 0.021958895 -0.055370558
0.05090446 0.022654418 -0.069653861
0.050903503 0.023370035 -0.084352985
0.028499432 0.03144275 -0.11130967
0.037866093 0.021071134 0.013974522
0.050910816 0.01795329 -0.00089734275
0.050909527 0.018554496 -0.013619519
0.050908208 0.019172184 -0.026690595
0.050907347 0.019806901 -0.040125065
0.050905973 0.020459663 -0.053938396
0.050905045 0.021130942 -0.068146639
0.050904114 0.021821691 -0.082767062
0.032510463 0.028368171 -0.10732595
0.034718953 0.020378869 0.017131092
0.050197456 0.016694658 0.0015980111
0.050910253 0.017074613 -0.01111887
0.050908949 0.017669022 -0.024090458
0.050907608 0.018279878 -0.037420899
0.050906736 0.01890772 -0.051125217
0.050905325 0.019553574 -0.065219499
0.050904397 0.020217912 -0.079720385
0.039650925 0.024352986 -0.10023183
0.031483155 0.0196671 0.020376598
0.047419984 0.015991794 0.0043837167
0.050910488 0.015609398 -0.0086427731
0.050909191 0.016180959 -0.021516209
0.050908357 0.016768113 -0.034743968
0.050906997 0.017371794 -0.048340902
0.050906103 0.017992416 -0.062322568
0.05090468 0.018631004 -0.076705769
0.046157643 0.020694157 -0.093767352
0.028154884 0.018934991 0.023714848
0.044570051 0.015270333 0.0072425045
0.050911203 0.014158363 -0.0061908648
0.050909925 0.014707494 -0.018967442
0.05090861 0.015271663 -0.032093938
0.050907765 0.015851358 -0.045584835
0.050906383 0.016447516 -0.059455682
0.05090547 0.017060557 -0.073722489
0.050904542 0.017691353 -0.088402592
0.024730109 0.018181657 0.027149884
0.041643746 0.014529801 0.010177483
0.050911427 0.012721564 -0.0037627795
0.05091016 0.013248675 -0.016443791
0.050909352 0.013790021 -0.02947033
0.050908018 0.014346453 -0.042856775
0.050907157 0.014918336 -0.056618087
0.050905749 0.015506604 -0.070770472
0.050904829 0.016111681 -0.085330524
0.026461629 0.02357202 -0.11334694
0.038638487 0.013769288 0.013191632
0.050912123 0.011298547 -0.0013582116
0.050910871 0.011804036 -0.013944882
0.050909594 0.012323233 -0.026872845
0.050908767 0.012856576 -0.040156096
0.050907414 0.01340491 -0.053809606
0.050906517 0.013968613 -0.067848861
0.050905108 0.014548603 -0.082290746
0.034081053 0.019678483 -0.10577674
0.035551038 0.012987977 0.016288243
0.050742194 0.0099294074 0.0010441284
0.050911106 0.01037361 -0.011470349
0.050910302 0.010870829 -0.024301006
0.050909001 0.01138176 -0.037482563
0.050908159 0.011906738 -0.051029544
0.050906789 0.012446601 -0.064957522
0.050905891 0.013001729 -0.079282522
0.041006435 0.016139457 -0.098895818
0.032377969 0.012185 0.019470701
0.04801267 0.009150248 0.0037820397
0.05091181 0.0089569613 -0.0090198563
0.050910551 0.0094328253 -0.021754486
0.050909743 0.0099215303 -0.034835633
0.05090842 0.010423834 -0.048277698
0.050907563 0.010940064 -0.062095664
0.050906178 0.011471062 -0.076305762
0.047328994 0.012908486 -0.092613839
0.029115677 0.011359447 0.022742642
0.045212019 0.0083510326 0.006590893
0.050912026 0.0075541059 -0.0065930104
0.050911266 0.0080087967 -0.019232903
0.050909985 0.0084759109 -0.032215036
0.050909165 0.0089557292 -0.045553442
0.050907813 0.009449021 -0.05926314
0.050906952 0.0099561084 -0.073359609
0.050905533 0.010477841 -0.087859809
0.02576036 0.010510344 0.026107922
0.042337921 0.0075308611 0.0094734039
0.05091273 0.0061646351 -0.0041895374
0.050911482 0.0065987497 -0.016735883
0.050910704 0.0070444532 -0.029620264
0.050909404 0.0075024362 -0.042856548
0.050908569 0.0079729883 -0.056459233
0.050907206 0.0084568672 -0.070443973
0.050906315 0.0089544067 -0.08482676
0.028206775 0.014748492 -0.1116247
0.03938745 0.0066888928 0.0124325
0.050912943 0.004788565 -0.001809025
0.05091219 0.0052022706 -0.014263081
0.050910935 0.0056271669 -0.027051022
0.050910138 0.0060635093 -0.040186428
0.050908823 0.0065119709 -0.053683762
0.050907973 0.0069728587 -0.067558005
0.050906591 0.0074469093 -0.081825443
0.035586823 0.011347443 -0.10429148
0.036357541 0.0058242516 0.015471273
0.050913624 0.0034255029 0.00054875569
0.050912414 0.0038193648 -0.011814133
0.050911169 0.004223736 -0.024506899
0.050910376 0.0046389429 -0.037542842
0.050909068 0.0050656302 -0.050936162
0.05090823 0.0055040745 -0.064701587
0.050906852 0.0059549795 -0.078855112
0.042308502 0.0082497979 -0.097612455
0.031567782 0.0052016946 0.020275723
0.047161024 0.0027315293 0.0046292879
0.050912801 0.0024118577 -0.00814695
0.050912052 0.0027949736 -0.02071259
0.05091079 0.0031884785 -0.033615876
0.050909981 0.0035926097 -0.046870559
0.050908659 0.0040079919 -0.060491316
0.050907809 0.0044349041 -0.074493282
0.050906423 0.004874039 -0.088893041
0.026560342 0.0045508463 0.025298536
0.04287817 0.002080803 0.0089251827
0.050913651 0.0010213433 -0.0045242999
0.05091244 0.0013838731 -0.016964948
0.050911672 0.0017559949 -0.029737802
0.050910402 0.0021382791 -0.04285638
0.05090959 0.0025309583 -0.056334794
0.050908256 0.0029346545 -0.070188247
0.050907385 0.0033496439 -0.084432319
0.029548474 0.0079602646 -0.11030017
0.038412873 0.0014021874 0.013404485
0.050068021 -0.00020919419 -0.0008522339
0.050912831 -9.9945073e-06 -0.013263077
0.050912071 0.00034133531 -0.025907781
0.050910819 0.00070219237 -0.038892556
0.050910003 0.0010728074 -0.052231256
0.050908685 0.0014537488 -0.065938704
0.050907832 0.001845276 -0.080030143
0.039971244 0.0042819139 -0.099942148
0.033752114 0.0006940384 0.018079434
0.041533552 -0.00020491792 0.0038372804
0.04363874 -0.00020500184 -0.0092138443
0.045741368 -0.00020466423 -0.022264959
0.047843557 -0.00020424653 -0.035316445
0.049946319 -0.00020391656 -0.048368253
0.050909609 -8.2740789e-06 -0.061743461
0.050908286 0.00036044122 -0.075685129
0.049112119 0.0010558739 -0.090857774
0.028883938 -4.5799257e-05 0.022962889
0.032125719 -0.00020002747 0.0090062562
0.034343079 -0.0002008133 -0.0047122384
0.036552433 -0.00020037843 -0.018429941
0.038762409 -0.00020002366 -0.032148045
0.040971901 -0.00019958497 -0.045866616
0.043182012 -0.00019923784 -0.059585493
0.045391642 -0.00019879533 -0.073304936
0.047602929 -0.00019862366 -0.08702413
0.026906088 0.0036722834 -0.1129337
0.021704471 -0.00019460679 0.014732022
0.024037762 -0.00019488145 0.00027486801
0.026374774 -0.00019571306 -0.014182041
0.028702969 -0.00019525147 -0.028638564
0.031031838 -0.00019488145 -0.043095529
0.033363797 -0.00019497301 -0.057552185
0.035694547 -0.00019487954 -0.072009131
0.038023561 -0.00019451142 -0.086466894
0.037592944 0.00024550059 -0.10231245
0.01011632 -0.00019120408 0.021105763
-0.012429507 0.0032196294 0.0089096455
0.015038373 -0.00019042398 -0.0094507644
0.017495329 -0.00018945122 -0.024729868
0.019971039 -0.00019110681 -0.040007882
0.022432188 -0.00019071771 -0.055286899
0.024893405 -0.0001903267 -0.070566356
0.0273547 -0.00018993951 -0.085846275
0.029816044 -0.00018954088 -0.10112665
-0.0026239897 -0.00018522264 0.026631238
-0.010196745 0.0011190053 0.011837677
-0.013374303 0.0018867742 -0.0048104404
0.005219013 -0.00018594743 -0.021969067
0.0078283334 -0.00018553543 -0.038169093
0.010438489 -0.00018522264 -0.054369472
0.013048714 -0.00018491174 -0.07057023
0.015659003 -0.00018460084 -0.086771399
0.018268611 -0.00018418313 -0.10297325
-0.016707366 -0.0001802311 0.031138951
-0.0139411 -0.00017857744 0.013901845
-0.013933469 0.00015826036 -0.0031514321
-0.0083672265 -0.00018023301 -0.020578362
-0.0056154775 -0.00017670442 -0.037820123
-0.0028359338 -0.00017659379 -0.055061705
-5.3782944e-05 -0.00017681504 -0.072302721
0.0027283293 -0.00017703821 -0.089543454
0.005511215 -0.00017736436 -0.10678355
-0.029464867 -0.00017326546 0.016003605
-0.026491061 -0.00017361832 -0.0024179537
-0.023551155 -0.00017008019 -0.020839462
-0.020556815 -0.00017279244 -0.039260842
-0.017592048 -0.00017208673 -0.057683598
-0.014628117 -0.00017126084 -0.076107606
-0.011668854 -0.0001698475 -0.094534487
-0.0086958474 -0.00017008591 -0.11295737
-0.043148998 -0.0001647606 -0.0072936444
-0.039967742 -0.00016387941 -0.027072044
-0.036786303 -0.00016299057 -0.046851795
-0.033587404 -0.00016400337 -0.066629335
-0.030404609 -0.00016324807 -0.086409964
-0.027222766 -0.00016235924 -0.10619216
0.049487479 0.079637565 -0.066816367
0.049482375 0.07943368 -0.072802477
0.049489401 0.076069884 -0.066611297
0.040857367 0.076708131 -0.059241276
0.049484875 0.075818554 -0.072564013
0.037975896 0.076311067 -0.059231456
0.049487691 0.07352379 -0.070412055
0.032085054 0.07728795 -0.059208777
0.049492516 0.070784196 -0.066307232
0.049472619 0.075824387 -0.087152272
0.048445877 0.067884125 -0.059278086
0.049481675 0.071934894 -0.078410007
0.031909261 0.073691361 -0.059212159
0.049494386 0.067303807 -0.066107169
0.049474712 0.072127052 -0.086833254
0.040363524 0.068105042 -0.059248492
0.049489982 0.066938922 -0.071979128
0.015774397 0.077076055 -0.059150264
0.045574676 0.064088032 -0.059271716
0.049487021 0.066101246 -0.075939484
0.015711406 0.075150594 -0.059151962
0.045471229 0.062439304 -0.059272993
0.049488258 0.064339586 -0.075813219
0.012170102 0.074688025 -0.059139408
0.042754818 0.061889585 -0.059263948
0.049491033 0.062149402 -0.073650889
0.0048339549 0.075728014 -0.059111848
0.037219174 0.062455654 -0.059243407
0.049495786 0.059574306 -0.069532365
-0.01122724 0.080151141 -0.059048884
0.025320379 0.065486997 -0.059197012
0.049503792 0.05627631 -0.061690897
0.049485121 0.060385957 -0.081645846
0.0084295031 0.070282459 -0.059130535
0.039781336 0.057971302 -0.059257321
0.049496137 0.056570627 -0.071296021
-0.015587453 0.077535607 -0.059036002
0.022006311 0.06309367 -0.059187651
0.049507458 0.052596804 -0.059643611
0.049488645 0.056469969 -0.079285637
0.049565438 0.039762102 -0.0014805375
0.0083285682 0.066382475 -0.059134535
0.039590236 0.054638188 -0.059259977
0.049497984 0.053182084 -0.071072906
0.038969338 0.039919261 0.011185913
0.049175348 0.038085874 0.00096897129
-0.029478559 0.078309052 -0.058984738
0.011830831 0.063139126 -0.059150655
0.042160254 0.052001268 -0.059272069
0.049496666 0.051874094 -0.072945148
0.031521246 0.039838932 0.018640848
0.042154353 0.037972476 0.0079969559
0.049565334 0.037311304 -0.0029013483
0.049552187 0.039870106 -0.01679475
0.00079499057 0.065179572 -0.05910854
0.033855129 0.053316984 -0.059240606
0.049503218 0.049109384 -0.066957995
0.049483396 0.05284952 -0.087264486
0.031604905 0.038412251 0.018556496
0.042210534 0.036594175 0.0079395603
0.049566161 0.035965677 -0.0029464418
0.049552646 0.038460061 -0.016813096
0.00075870135 0.063188598 -0.059110407
0.033767518 0.051620889 -0.059241999
0.049504351 0.047462258 -0.066858567
0.049484637 0.051104873 -0.087108426
0.029491274 0.037360001 0.020671548
0.040203277 0.035567399 0.0099481512
0.049569204 0.034163829 -0.00036218646
0.049555968 0.036552832 -0.01396687
0.049541969 0.039159324 -0.028810963
0.02783525 0.051930171 -0.059220284
0.049508788 0.045156665 -0.062964164
0.049489561 0.048630085 -0.082744323
0.026240125 0.036482353 0.023924906
0.037128869 0.034704305 0.013025178
0.047360029 0.033033732 0.0027831499
0.049561031 0.034448482 -0.0097944839
0.049547039 0.036920186 -0.024220467
0.049531728 0.039624017 -0.040001251
0.046870828 0.043814022 -0.059298016
0.049496364 0.045872409 -0.076469667
0.022942102 0.035591722 0.027225748
0.034011051 0.03382903 0.016145654
0.044406954 0.032173615 0.0057387166
0.049565524 0.032406114 -0.0057448274
0.04955196 0.03474972 -0.019770764
0.049537122 0.037309892 -0.035092782
0.04952085 0.040118098 -0.051899236
0.049502924 0.043212224 -0.070416845
0.0043335785 0.039522558 0.030684724
0.029755346 0.033111103 0.020404801
0.040385619 0.031461187 0.0097632911
0.049571205 0.030210797 -0.00051036454
0.049558129 0.032413937 -0.014037953
0.049543884 0.034816545 -0.028790276
0.049528275 0.037446991 -0.04494153
0.049511116 0.040339284 -0.062700607
0.049492154 0.043534588 -0.082320191
0.025411058 0.032378238 0.024752619
0.036283642 0.030734235 0.013869134
0.046502065 0.029189231 0.0036399309
0.049564075 0.030166918 -0.0085229957
0.049550369 0.032422151 -0.02273789
0.04953539 0.0348868 -0.038272753
0.049519431 0.03759126 -0.055320088
0.049501333 0.040572762 -0.074112751
0.020975947 0.031629782 0.029191911
0.032097641 0.029992631 0.018058518
0.042544071 0.028454885 0.0076010898
0.049569804 0.028003691 -0.0032136843
0.049556609 0.030120932 -0.016921014
0.049542211 0.032430775 -0.031875305
0.04952693 0.034960564 -0.048254482
0.049509611 0.037743721 -0.066273071
0.049490459 0.040820062 -0.086189836
0.026720174 0.029394047 0.02344075
0.037468642 0.027854593 0.012681005
0.047576122 0.026406862 0.0025634577
0.049563967 0.027701143 -0.009952832
0.049550254 0.029847501 -0.024234682
0.049535725 0.032193039 -0.039842799
0.049519289 0.034767229 -0.05697149
0.049501188 0.037604995 -0.075854026
0.02119557 0.02877908 0.028970269
0.03225866 0.027238388 0.017895577
0.042653531 0.025790669 0.0074903723
0.049570996 0.02539134 -0.0033013728
0.049557913 0.027386725 -0.016956395
0.049544089 0.029562691 -0.031848069
0.049528487 0.031945273 -0.048152827
0.049511321 0.034565166 -0.066081583
0.049492363 0.037459683 -0.08588969
0.026908714 0.026605627 0.023250252
0.037602741 0.025158433 0.012545613
0.047660962 0.023797357 0.0024768754
0.049565215 0.025039941 -0.010015259
0.049552046 0.027059576 -0.024240032
0.049537208 0.029266126 -0.039780442
0.04952091 0.03168663 -0.056827668
0.04950298 0.034353781 -0.075612001
0.021413097 0.025955634 0.028750734
0.032418683 0.024509512 0.017734239
0.042761575 0.023150541 0.0073805507
0.049572192 0.022799404 -0.0033883669
0.049559634 0.024674669 -0.016991291
0.049545493 0.026719216 -0.031821303
0.049530022 0.028956881 -0.048052069
0.049513023 0.031416375 -0.065891884
0.049494259 0.03413241 -0.085592508
0.027096011 0.023843236 0.023061609
0.037735175 0.022486957 0.012411355
0.047745474 0.021210775 0.0023911668
0.049566444 0.022399934 -0.010077187
0.049553387 0.024294987 -0.024245543
0.049538668 0.026364671 -0.039718632
0.049522534 0.028634114 -0.05668515
0.049504761 0.031133715 -0.075372301
0.017059738 0.024045095 0.030623583
0.030441435 0.022069864 0.01971161
0.04086015 0.020782201 0.0092826234
0.049575888 0.019893406 -0.00089726644
0.049563222 0.021621456 -0.014223553
0.049549881 0.023503182 -0.028735826
0.049534835 0.025560349 -0.04460023
0.049517825 0.027818697 -0.062015139
0.049499579 0.030308872 -0.081218742
0.022859186 0.021636108 0.027301209
0.033710357 0.020337168 0.016438775
0.043915357 0.019115509 0.0062237401
