# .PCD v0.7 - Point Cloud Data file format
VERSION 0.7
FIELDS x y z
SIZE 4 4 4
TYPE F F F
COUNT 1 1 1
WIDTH 1261
HEIGHT 1
VIEWPOINT 0 0 0 1 0 0 0
POINTS 1261
DATA ascii
-0.030655148 0.037970122 -0.010726506
-0.028559461 0.037968889 -0.0049821874
-0.022646379 0.037966829 0.0013243771
-0.013163139 0.037966147 0.0081584053
0.018387944 0.037962954 0.019393129
-0.03099478 0.037962623 0.014984258
0.0030016128 0.037960455 0.026299486
-0.019391397 0.037959803 0.026990937
-0.0096172653 0.026523666 0.02820456
0.0022623148 0.0073939636 0.028184824
0.017449403 0.076911934 -0.099828191
0.030938691 0.07691016 -0.09062501
-0.028679864 0.076908499 -0.08186762
-0.014825246 0.076908253 -0.075572006
-0.0043696021 0.076907545 -0.069497652
-0.0014314299 0.076907337 -0.063632205
-0.0028143602 0.076907113 -0.057965487
-0.0057398328 0.072142348 -0.056558762
0.0014829154 0.065383129 -0.056561407
0.018410215 0.058156528 -0.056564227
0.046084728 0.050412323 -0.056567248
-0.0083440635 0.039181072 -0.056571305
0.036209818 0.038915209 -0.050777543
-0.01774307 0.038913809 -0.043089233
0.015891794 0.038913473 -0.037521303
-0.048313636 0.038910858 -0.030349491
-0.024579888 0.038911223 -0.025148613
-0.0030292252 0.03891094 -0.020094516
0.011948791 0.038909405 -0.015181304
0.02357042 0.038908541 -0.010402316
0.031971782 0.038907077 -0.0057526487
0.034413565 0.038906254 -0.0012266387
0.013100208 0.011846684 -0.0039578923
-0.028954223 0.038905084 0.011655819
0.0027112223 0.038904674 0.017068779
-0.019915931 0.038904011 0.023584438
0.013428521 0.033536289 0.028947018
-0.00068884913 0.076984391 -0.10926578
-0.0050438521 0.076983809 -0.1038091
0.033747695 0.076984331 -0.075814977
-0.016413081 0.076983266 -0.096852526
-0.008782533 0.076983266 -0.08689747
-0.0037009667 0.076983258 -0.078496061
9.5222786e-05 0.076983251 -0.070923902
0.0038265195 0.076982729 -0.063481688
0.0065216343 0.076181114 -0.057181377
0.0066245687 0.066456176 -0.057206728
0.0032594816 0.059528209 -0.057223357
-0.0020465013 0.054167077 -0.057234738
-0.010831534 0.052764457 -0.057234369
-0.02106428 0.053413477 -0.057228196
-0.034820378 0.059833415 -0.057205699
-0.046351999 0.063960165 -0.057189982
0.036032751 0.038987685 -0.014850954
0.023608208 0.038987368 -0.016260197
0.014112575 0.038987797 -0.016085364
0.0088342465 0.038987465 -0.013588785
0.0144053 0.038985696 -0.0049799257
-0.046243031 0.038985297 -0.032518793
-0.035771929 0.038984913 -0.019574044
0.018880514 0.03898453 0.01847019
-0.017480781 0.038984749 0.0060393945
-0.014007824 0.038985074 0.014549093
-0.012599178 0.038984612 0.023333773
0.047100589 0.075929627 -0.061738022
0.024876662 0.075929523 -0.079475842
0.024866445 0.075927362 -0.062105499
0.013684085 0.075926766 -0.06594687
-0.0052054892 0.07592617 -0.084613666
0.040488794 0.037938785 -0.056235403
0.042040594 0.037937257 -0.039079115
0.027595803 0.037937287 -0.051631905
-0.02389781 0.075923242 -0.07504829
0.020586871 0.037935875 -0.042272948
-0.039878987 0.075922452 -0.087598361
-0.016048437 0.060755048 -0.05778195
0.014353895 0.037932459 -0.024448587
-0.047721855 0.074204914 -0.082023531
-0.023149977 0.051254671 -0.057803418
0.0016575746 0.037932698 -0.020381287
0.019586919 0.037930734 0.019886136
-0.028012106 0.037930187 -0.056249
-0.0087434268 0.037928946 -0.013870321
-0.039413169 0.03980758 -0.057814185
-0.047798347 0.024909535 -0.075778298
-0.0049685491 0.037927397 0.020290278
-0.022097131 0.037927549 -0.001314701
-0.025582602 0.03792708 0.0017875484
-0.04781856 0.0043524764 -0.047654618
-0.024574636 0.033706289 0.02240365
-0.047780622 0.017378787 -0.010124629
-0.045984667 0.076984935 -0.084619679
-0.023422588 0.076984353 -0.089515343
-0.047433171 0.076984338 -0.067997135
-0.016361304 0.076983795 -0.080017202
-0.00050356722 0.076983251 -0.083447181
0.011442523 0.076982729 -0.084740967
0.023181742 0.076982729 -0.086012021
0.033528589 0.076982222 -0.086581349
0.042518709 0.076981723 -0.086466596
0.045503896 0.076981723 -0.083009869
0.041474182 0.076981746 -0.075632319
0.036360227 0.076981738 -0.067719691
0.027905406 0.07698223 -0.057980575
0.016388837 0.053455692 -0.05638526
0.00061364548 0.038986843 -0.047438856
-0.015056996 0.038986508 -0.032613613
-0.029088715 0.038986947 -0.018817985
-0.040142644 0.038987376 -0.0068148798
0.045331601 0.038985677 -0.051900048
0.040640026 0.038986098 -0.043679073
0.045467131 0.038985793 -0.040981669
-0.023897506 0.038985398 0.0057860361
-0.017820086 0.038985014 0.0093128728
0.039181672 0.03898463 -0.016391063
0.0193293 0.03898485 0.0033318128
0.0235098 0.03898447 0.0075016092
0.014395626 0.038984701 0.020726999
-0.028680896 0.075931638 -0.10018112
-0.023041623 0.07592994 -0.087308154
-0.0036801002 0.075928763 -0.10513505
0.0042805513 0.07592763 -0.10289455
0.00090405357 0.07592608 -0.08065211
-0.043087862 0.037938774 -0.051480584
-0.03607164 0.037938021 -0.049997635
-0.045222614 0.037935797 -0.01938724
0.016092449 0.07592269 -0.064210378
-0.040221449 0.037933692 -0.0063560349
-0.010431497 0.037935194 -0.052290928
0.033651613 0.075921692 -0.072968863
-0.024624914 0.037931059 -0.0056602634
-0.00069109508 0.037933238 -0.041455332
0.037409492 0.075919934 -0.058050904
-0.020753885 0.037931331 0.014552568
0.0023568908 0.037932087 -0.020257089
0.025036789 0.037930153 -0.054420184
-0.011957672 0.03792895 0.024000918
0.023525579 0.037929691 -0.03391286
0.01845842 0.037927236 -0.014380734
0.014240178 0.037928037 0.0033289974
0.046913099 0.016711241 -0.066343822
0.04695078 0.028234111 -0.047388382
0.020748485 0.037926622 0.019868087
0.046958286 0.025711263 -0.026295383
0.044701923 0.037923485 -0.00043643016
0.039664265 0.076043822 -0.085805677
0.008333182 0.076031774 -0.060148921
-0.040232174 0.073504001 -0.057390332
0.0059054759 0.065288194 -0.057412211
-0.036699478 0.062122431 -0.057398979
0.020396223 0.051827192 -0.057425741
-0.013132237 0.047938246 -0.057415839
-0.041502796 0.043920539 -0.057408672
0.002810338 0.038031496 -0.046236642
0.028375071 0.038027816 -0.027196838
0.035578582 0.03802418 -0.014449916
0.028358968 0.038020283 -0.0067336773
0.015211429 0.038014755 -0.001542931
0.0092041269 0.028581113 -0.011134602
0.0056761769 0.022537118 -0.013538246
-0.0064533772 0.038007531 0.014838286
-0.0062604197 0.038003303 0.021238731
-0.001687847 0.037839875 0.028182091
0.0087607894 0.031422015 0.028173827
0.04113622 0.0013920636 0.005210591
-0.028742831 0.022073412 0.019028651
-0.0016885094 0.018827761 0.028169494
-0.029022152 0.010822073 0.018764675
-0.016484998 0.010071349 0.028168837
0.018318424 0.076069325 -0.079269774
-0.030045433 0.070917331 -0.057162043
0.023536989 0.065957204 -0.057162322
-0.01697517 0.059231438 -0.057163004
0.037618957 0.054100916 -0.057163313
-0.0034536219 0.047142256 -0.057163119
-0.033136349 0.040044781 -0.057163835
0.024722515 0.03805951 -0.044456966
-0.045569751 0.038046673 -0.021961544
-0.043511283 0.038039397 -0.0080404133
0.031079398 0.038034957 0.00013485126
0.0084483502 0.029461913 -0.011517184
-0.011330228 0.038027126 0.020580824
-0.030381648 0.033047829 0.01762243
0.037552707 0.026600601 0.00908814
0.019786846 0.031164547 0.026940899
0.0087617012 0.028239625 0.028347822
-0.0022082073 0.024571119 0.028347511
-0.012244526 0.020842748 0.028347516
-0.016834889 0.01705265 0.0283472
-0.0067899721 0.013199683 0.028347215
-0.026644947 0.0031770626 0.021381333
0.0057867216 0.0026041577 0.028346648
0.0057807812 0.072050445 -0.056322426
-0.027060291 0.065104537 -0.056311637
0.041843936 0.060077742 -0.056338295
0.011335789 0.053174909 -0.056328408
-0.015519692 0.046673961 -0.056319792
-0.035932742 0.040403489 -0.056314405
-0.0023509555 0.038243931 -0.023742758
-0.025380416 0.038232207 -5.6258392e-05
-0.04539495 0.036068335 0.0037758462
0.013827287 0.03533864 0.029276242
0.0017703187 0.032664504 0.029280035
-0.0097881183 0.030100815 0.029283352
-0.020642988 0.027408607 0.028478766
-0.029576402 0.022286296 0.019566724
-0.036446951 0.017277606 0.012713319
-0.043900508 0.01184406 0.0052787904
-0.046227701 0.0074565546 0.002958813
-0.041913647 0.0048293308 0.0072645554
-0.025988925 0.0058388361 0.023153985
-0.0093639744 0.00178979 0.029277349
-0.040612455 0.065853395 -0.056290355
0.041729338 0.067495219 -0.056315798
-0.037330765 0.035606336 0.01185518
-0.038277015 0.032232631 0.010909018
-0.047780585 0.030170675 0.0014257682
0.01637524 0.025782535 0.029295502
-0.00075165351 0.021532768 0.029301411
-0.018759897 0.017510138 0.029307673
-0.03308367 0.015544378 0.016082311
-0.048521213 0.015866889 -0.02434724
0.0083341524 0.009909803 0.029300613
-0.010145744 0.0063590123 0.029307244
-0.025721945 0.0033294521 0.023421068
-0.043673214 0.000406701 0.0055082776
0.0088297864 0.035255305 0.028388752
0.014194814 0.030379143 0.028388403
0.039568581 0.036937062 0.0071050106
0.022178028 0.024958 0.024585092
0.0042649214 0.019780414 0.028387729
-0.012695213 0.016357338 0.028387738
-0.034135252 0.018212941 0.01391569
0.026845695 0.013672063 0.019912086
0.0020728812 0.0074844398 0.028387098
-0.020778006 0.0045933849 0.027191831
0.036575489 0.0070444592 0.010148719
0.0052778847 0.00010326117 0.023713449
-0.026989935 0.00011074103 0.0088328971
0.03169547 0.00011514777 -0.0030748961
0.02018439 0.00012464981 -0.025026768
-0.044112824 0.00014273157 -0.065765336
-0.014348919 0.034823298 0.028238216
-0.01095616 0.028375125 0.028240468
-0.041039106 0.03255276 0.0068320208
-0.02461064 0.019619951 0.023203598
-0.015950903 0.013852584 0.028248848
-0.011570018 0.010849225 0.028249159
-0.013911164 0.0067136656 0.028251674
-0.018298978 0.0023856345 0.028254885
-0.024375031 0.00061581994 0.023408953
-0.032282792 0.0001219119 0.015359327
-0.045019969 0.00088439533 0.002810546
0.020192202 0.00012656688 0.017234785
0.010384654 0.0069145816 -0.0098779462
-0.015750315 0.00013367167 -0.011382238
-0.040961869 0.00013861111 -0.029408652
0.036876418 0.00013998461 -0.015741292
0.037382465 0.00014590615 -0.029106265
-0.034018405 0.00015602607 -0.070195049
0.022001261 0.00016351319 -0.073353119
-0.037961666 0.072986633 -0.056602355
-0.046135303 0.06424091 -0.056591626
0.041078106 0.066667937 -0.056701042
0.022240218 0.057720661 -0.056677565
0.0049131531 0.049490955 -0.056655969
-0.043313432 0.037830882 0.0057827858
0.010432006 0.035898101 0.029013816
-0.035922304 0.03214195 0.013169665
0.010432006 0.029924508 0.029013816
-0.035922304 0.026598355 0.013169665
0.010432006 0.02395092 0.029013816
-0.035922304 0.021054769 0.013169665
0.010432006 0.017977327 0.029013816
-0.035922304 0.015511178 0.013169665
0.010432006 0.012003736 0.029013816
-0.034316685 0.01004881 0.014774601
-0.048597947 0.0047033723 -0.0074893385
-0.048597947 0.001100351 -0.0074893385
-0.048014887 0.07481093 -0.062716335
-0.030138789 0.065220624 -0.057741448
-0.048035186 0.056707695 -0.075776152
-0.032602631 0.037347194 0.014698754
-0.04789722 0.03677199 -0.018343631
-0.026978539 0.03145818 0.020322738
-0.048010048 0.037680291 -0.068627544
-0.047868408 0.026412999 -0.0076585845
-0.029608108 0.023253476 0.017693475
-0.048044022 0.028565176 -0.085741162
-0.047896642 0.019378668 -0.02178297
-0.037001964 0.015183608 0.010299421
-0.0091889622 0.013711607 0.027928211
-0.047933716 0.011556954 -0.039899319
-0.044243481 0.0072803195 0.0030582726
-0.023621116 0.005082895 0.023680588
-0.047976375 0.0024851575 -0.060911644
-0.017936416 0.075920239 -0.057749748
-0.047977615 0.067699127 -0.073779017
-0.048007686 0.061777744 -0.086184666
0.044271115 0.056199495 -0.057913695
0.044466056 0.048289385 -0.057918102
0.04466413 0.04029125 -0.057923328
-0.04392447 0.039744526 -0.057704531
-0.013780951 0.038064945 -0.012065942
-0.0053082895 0.038057692 0.023920832
-0.047933284 0.031268865 -0.045168422
-0.044131592 0.03435741 0.0031398661
-0.021320885 0.031876065 0.025950298
-0.04795045 0.02040337 -0.050447926
-0.044903222 0.026164206 0.0023679223
-0.020246664 0.023581374 0.027024351
-0.047935057 0.011861997 -0.041375056
-0.039928582 0.017769074 0.0073422058
-0.047967538 0.0016363369 -0.053895812
-0.024055265 0.011526542 0.023215726
-0.020600183 0.0077963877 0.026670594
-0.023826879 0.002874777 0.023443863
0.023039818 0.076041445 -0.093783021
-0.01074271 0.074975662 -0.05691798
0.034265798 0.073203519 -0.056927912
-0.010964261 0.063339978 -0.056912206
0.039797563 0.062535308 -0.05692438
0.0062918873 0.052743327 -0.056911193
-0.026202913 0.042177815 -0.056898296
0.035127718 0.043396998 -0.056914035
-0.023671649 0.038029768 -0.036302011
-0.0015362439 0.03802463 -0.031003557
0.0028611661 0.038020592 -0.021848919
-0.0066223922 0.036078677 -0.013387493
-0.014317777 0.034225564 -0.0056915488
-0.015937287 0.038012128 0.0093302578
-0.015240632 0.038009237 0.016384397
-0.011164648 0.03800559 0.021931438
-0.0051881257 0.03800245 0.026449466
0.004185833 0.037222326 0.028520249
0.013513166 0.035057165 0.028519077
0.028481772 0.026000243 0.018364906
-0.023642128 0.012720776 0.024639698
0.014345321 0.02079528 0.028524844
-0.013781711 0.0070681944 0.028537756
0.01149777 0.007392914 0.028531296
0.021994364 0.073267072 -0.055805545
-0.0092496593 0.066981263 -0.055795074
-0.039605614 0.060084533 -0.055783834
0.029002871 0.055267408 -0.055805236
0.0015411159 0.048167974 -0.055794913
-0.028338088 0.040443588 -0.055783674
0.018608399 0.038249914 -0.041108616
0.0077030691 0.037235864 -0.011077373
-0.0010567425 0.038223494 0.022673802
-0.013628182 0.035413921 0.0296153
0.046910699 0.021145839 -0.045463692
0.038151395 0.028601954 0.010112906
0.028455371 0.026832048 0.019829992
0.019606145 0.02521663 0.028698031
0.010926022 0.02146204 0.02960998
0.0027231497 0.017343326 0.029613487
-0.00095820328 0.013536741 0.029615307
0.0025622242 0.010433045 0.029614624
0.015335552 0.0084314439 0.029611103
-0.0037513773 0.001449525 0.02961806
0.036635209 0.069774374 -0.055675339
0.020911334 0.064808764 -0.055656377
-0.0022371209 0.05984487 -0.055627644
-0.028316004 0.054252822 -0.055596147
0.047246505 0.045948219 -0.06325867
0.012785137 0.036468387 0.029677624
0.047401663 0.034500781 0.0012598669
0.012785137 0.031015154 0.029677624
0.047401663 0.028780444 0.0012598669
0.012785137 0.025561927 0.029677624
0.047401663 0.023060108 0.0012598669
0.012785137 0.020108696 0.029677624
0.047401663 0.017339773 0.0012598669
0.012785137 0.014655466 0.029677624
0.047401663 0.011619438 0.0012598669
0.01569302 0.0094381822 0.029673833
-0.016750503 0.0031551465 0.029714597
-0.0096114315 0.00026702805 0.029705623
0.046841629 0.072839431 -0.056604281
0.032987211 0.06765642 -0.056491282
0.025433645 0.061751109 -0.056470893
0.025582714 0.055578936 -0.056468118
0.025733072 0.049353082 -0.056465305
0.025884746 0.043072853 -0.056462478
0.0047705341 0.03807804 -0.03731991
0.046812091 0.036698855 -0.061373606
0.017674536 0.038053453 0.022422696
0.044971354 0.036683392 0.002341337
0.046835154 0.027732084 -0.049225301
0.02049326 0.030701891 0.0268193
0.043309968 0.028516021 0.004002464
0.046840657 0.018220359 -0.044893671
0.021064389 0.022400761 0.026248222
0.045719016 0.020235127 0.0015938404
0.046806242 0.0050836671 -0.057980839
0.035778012 0.014106908 0.011534326
0.019025398 0.010251892 0.02828715
0.029821794 0.0066881585 0.017491011
0.036444765 0.0018133222 0.010867843
0.046780135 0.068747044 -0.07573618
0.046785895 0.06017489 -0.075100817
0.016371889 0.037887257 0.028892068
0.046925392 0.037770633 -0.015727142
0.0034400923 0.034079701 0.0289218
0.036843393 0.029028147 0.010499053
0.0469044 0.030471157 -0.027087783
-0.001334692 0.025830349 0.028929047
0.035337452 0.020907631 0.012005336
0.046922512 0.020668989 -0.021024536
0.046783701 0.023651501 -0.084385514
0.029048225 0.012938114 0.018293776
0.046961464 0.010953867 -0.0052199699
0.04684731 0.011107995 -0.058006946
0.022051416 0.0050838608 0.02528991
0.042712629 0.0028409564 0.0046296665
0.046898793 0.00088813895 -0.03651537
-0.0020428204 0.069597751 -0.055749431
0.0086776856 0.036350232 0.029629327
0.014379397 0.032605279 0.029626632
0.0099209938 0.029656416 0.029627537
-0.0016000371 0.027098475 0.029631488
-0.017372305 0.024632256 0.029637033
0.044254765 0.023793058 0.0040266062
0.030177612 0.018697266 0.018136403
0.015636155 0.014467876 0.029622458
-0.0023225667 0.011874981 0.029628776
-0.025855532 0.0096806427 0.023150407
0.03766657 0.0070218458 0.010636525
0.020497138 0.0032201135 0.027845021
0.0003216305 0.00024598552 0.029625166
-0.017418273 0.037498552 0.028595276
-0.019359298 0.031855289 0.028592335
0.0078014061 0.02183914 0.028576953
0.020855019 0.016976932 0.026108587
0.027136149 0.016115345 0.019817425
0.027977956 0.012557223 0.018978775
0.026067011 0.0078678802 0.020899069
0.020034803 0.001677996 0.026949976
0.012095318 0.0001195219 0.025570923
-0.0016017708 0.00012191735 0.022437006
-0.018882044 0.00012561015 0.019598879
0.042145699 0.00012809801 -0.0030137994
0.020890187 0.00013131609 -0.006173152
-0.0093714716 0.0016632411 -0.011723442
-0.033574034 0.00013809471 -0.012534187
-0.045355685 0.0001437662 -0.022177117
-0.037246179 0.00015023861 -0.039210897
-0.0046985461 0.00015769491 -0.065325029
-0.019121956 0.00016823158 -0.088469565
-0.00069810497 0.076018132 -0.066843033
0.022347411 0.076011553 -0.075660393
0.040906914 0.076005943 -0.083525881
-0.022312507 0.07600493 -0.10890295
-0.0064362874 0.075617798 -0.1136881
0.002659718 0.073114596 -0.11368966
0.010482795 0.070525348 -0.11369086
0.014895163 0.067561232 -0.11369042
0.017100519 0.06429673 -0.113689
0.014811144 0.060359649 -0.11368582
0.012439116 0.056280427 -0.1136822
0.0051328782 0.05129683 -0.11367653
-0.0052023744 0.045583874 -0.1136693
-0.024115298 0.034485176 -0.10786786
0.037190381 0.031783432 -0.096112341
0.019427812 0.035949416 -0.11367113
-0.006664312 0.026209896 -0.11365627
0.033399895 0.017859556 -0.099913903
-0.0075296233 0.014743274 -0.11364846
0.0047730827 0.010982298 -0.11364999
-0.0027875511 0.00035484027 -0.11364046
0.0097643659 0.076033682 -0.094932407
0.030171335 0.073390134 -0.10332886
-0.037004977 0.069988243 -0.095146619
-0.015220269 0.069237925 -0.11384863
0.0021902903 0.06594409 -0.11384851
0.016548688 0.062601522 -0.11384837
0.029973265 0.056789875 -0.10354763
0.047499649 0.048520632 -0.086107031
-0.030827789 0.049948562 -0.10132576
-0.019437071 0.049580306 -0.11276827
-0.014855029 0.046325583 -0.11384759
-0.010363657 0.042685289 -0.11384743
-0.0058023822 0.038988348 -0.11384729
-0.0046783122 0.035233423 -0.11384715
-0.00707294 0.031419136 -0.11384698
-0.0095057152 0.027544076 -0.11384685
-0.011977562 0.02360677 -0.11384668
-0.019493179 0.018972414 -0.1126681
-0.032368805 0.007507477 -0.09971755
0.0049228016 0.010013198 -0.11384626
-0.020201048 0.0031141362 -0.11193445
0.043479756 0.07486444 -0.091201074
0.045826931 0.071421467 -0.088860415
-0.042909138 0.070182271 -0.089783408
-0.027415374 0.065486655 -0.10538384
-0.024355445 0.061721571 -0.10846217
-0.021420024 0.058109377 -0.1114151
-0.018601643 0.054640897 -0.11425012
-0.017131988 0.051131703 -0.11476362
-0.01727948 0.047549665 -0.11476272
-0.016094128 0.043982141 -0.11476226
-0.014904796 0.040403303 -0.11476218
-0.013711901 0.036812987 -0.11476169
-0.012515182 0.033211194 -0.11476121
-0.01131441 0.029597966 -0.11476117
-0.012775798 0.025791882 -0.11475977
-0.016976174 0.021729996 -0.11475749
-0.033844069 0.011906658 -0.09885972
0.042985711 0.010814661 -0.091724895
0.031900208 0.0095682675 -0.10278784
0.010093949 0.0079068551 -0.1147641
0.010046658 0.0029111272 -0.11476306
-0.010005418 0.073831812 -0.11477589
0.011237689 0.065631017 -0.11478373
-0.02145057 0.067505516 -0.11134148
0.03641649 0.06065622 -0.098315082
0.027793275 0.05428699 -0.10691547
0.019909285 0.048463538 -0.11477908
0.010159918 0.045765296 -0.11478715
9.4482362e-05 0.04298462 -0.11478456
-0.010299475 0.040113185 -0.11478191
-0.025408378 0.039367575 -0.10738074
0.04847715 0.034099765 -0.086186141
0.044779707 0.029578699 -0.089955494
0.042361479 0.025397036 -0.092366248
0.043401051 0.021699781 -0.091327131
0.044442598 0.017995518 -0.090286545
0.045486081 0.014284363 -0.089243516
0.04653151 0.01056622 -0.088198543
-0.045920547 0.0097279549 -0.086751908
-0.028607782 0.0045008636 -0.1041895
-0.015471756 0.00046681706 -0.11478741
0.016586648 0.068632543 -0.11389121
0.0025230099 0.062693797 -0.1138908
-0.041184388 0.073875107 -0.090882808
0.027524432 0.057537992 -0.10610557
0.014722939 0.048416466 -0.11389038
0.0048676124 0.044284988 -0.1138898
-0.0048282286 0.040220156 -0.1138896
-0.011973661 0.036220592 -0.11388942
-0.014253952 0.032284737 -0.11388923
-0.016498212 0.028411077 -0.11388904
-0.01876821 0.024776341 -0.11346263
-0.017401651 0.020844555 -0.1138887
-0.012662714 0.017148893 -0.11388854
-0.0079963738 0.013509851 -0.11388835
-0.0034009707 0.0099261273 -0.1138882
0.0056255092 0.0063964766 -0.11388803
0.016750135 0.0029195871 -0.11388823
0.02986786 0.0018000656 -0.10369472
0.048223339 0.0018245963 -0.085420944
-0.031711668 0.00012275449 -0.079948179
0.045120247 0.00013985051 -0.043049142
-0.033781286 0.00015837802 -0.0031636106
0.014082269 0.063805521 -0.11371514
0.0043917913 0.059295651 -0.11371481
0.018224658 0.048790049 -0.11372302
0.041223377 0.055118628 -0.092217341
0.0051238076 0.040512621 -0.11372349
0.04679672 0.045989636 -0.086641818
0.02243449 0.02816898 -0.11092363
-0.00080146961 0.026338439 -0.1137284
-0.029971818 0.034975208 -0.10200278
0.035634477 0.019815702 -0.097739466
0.024112387 0.010722269 -0.10922278
0.015920496 0.0055574933 -0.11374182
0.0089609483 0.0027780028 -0.11374142
0.0061639948 0.00012485456 -0.11226469
0.001199465 0.00012792225 -0.10545623
0.0028882043 0.00013113127 -0.095884554
0.0047741355 0.00013471174 -0.085195221
0.012289109 0.0001398179 -0.071669593
0.020797584 0.0001462903 -0.056353357
0.0089512682 0.00015244923 -0.044897132
-0.024588156 0.00015928039 -0.037254319
-0.006472595 0.0047908383 0.01292758
0.01228008 0.074735612 -0.11451847
0.026462244 0.069493286 -0.10813991
0.013803364 0.066278443 -0.11452024
-0.0039425408 0.064891271 -0.11449809
0.048652504 0.061553799 -0.073025994
0.042075966 0.055285282 -0.09253449
0.032397565 0.051172834 -0.10220785
0.023145434 0.047241513 -0.11145517
0.0091817351 0.044234846 -0.11451451
-0.009189236 0.041366335 -0.1144916
0.048691984 0.036922406 -0.061485101
0.0011216906 0.033605792 -0.11450439
0.028140789 0.029924508 -0.10646209
0.04754534 0.026255434 -0.087067634
-0.012793113 0.023490673 -0.11448735
0.021506872 0.020725613 -0.11309298
0.04028327 0.016695712 -0.094326362
0.04878816 0.0075576399 -0.033505123
0.01073945 0.010950939 -0.11451633
0.023145434 0.0079896403 -0.11145517
0.0091817351 0.0036888963 -0.11451451
0.043990098 0.073381498 -0.088811383
0.027908564 0.068261452 -0.10489272
0.047912575 0.064683773 -0.07823728
0.030709988 0.058934499 -0.1020913
-0.0053534918 0.0620998 -0.11334343
0.046589624 0.049639571 -0.086211845
0.029117372 0.045977134 -0.1036841
-0.0039519584 0.047282506 -0.11335437
0.046545103 0.036942419 -0.086256079
0.030159952 0.033319503 -0.1026416
0.037949633 0.029535303 -0.094851881
0.048027996 0.03405679 -0.020010855
0.041392036 0.023370182 -0.091409303
-0.0075094048 0.023981236 -0.11335801
0.047882687 0.017636426 -0.080796778
0.019286809 0.014983001 -0.11342623
0.047929049 0.012780206 -0.059259333
0.03048034 0.008962254 -0.10232124
0.048030488 0.0074942992 -0.01313823
0.047258828 0.0030463627 -0.08554253
0.020533532 0.00072298048 -0.11226851
0.047851074 0.071959563 -0.081196509
0.04060762 0.068361305 -0.092163086
0.031478189 0.06493032 -0.10129227
0.022244232 0.061460067 -0.11052593
0.0002805425 0.057704501 -0.11336871
0.047893662 0.052611448 -0.065718703
0.047274284 0.049736448 -0.085495688
-0.0012597032 0.03563055 0.015461434
0.031217601 0.043707803 -0.10155266
0.047988303 0.03440854 -0.026416035
0.039675336 0.037685838 -0.093094744
-0.014170785 0.030840971 -0.11331981
0.047863077 0.031509832 -0.084198423
0.013323882 0.027979387 -0.11338724
0.047904812 0.02236223 -0.066876583
0.02226389 0.022697199 -0.11050572
0.047913589 0.015082852 -0.064569414
0.020375257 0.016335241 -0.11239383
0.037839614 0.012674439 -0.094929479
0.035184879 0.0087823486 -0.097583964
0.042198304 0.003672719 -0.090570487
0.034442428 0.076018445 -0.076275013
0.036148254 0.076012716 -0.092012689
-0.036997721 0.076007299 -0.08048103
-0.023951273 0.076003395 -0.095968559
-0.014649367 0.075999744 -0.10888067
-0.00846045 0.073851041 -0.11401165
-0.0014391894 0.069629177 -0.1140152
0.0035556019 0.065459624 -0.11401822
0.0062983539 0.061414015 -0.11402064
0.0041213874 0.057910684 -0.11402192
0.0019116983 0.054354247 -0.1140229
-0.0052698562 0.051510472 -0.11402234
-0.01478362 0.049077645 -0.11402134
-0.026031502 0.042227235 -0.10631143
-0.041751467 0.030497288 -0.090539023
0.011624552 0.030114429 -0.11403665
-0.015828537 0.031123951 -0.11402887
-0.044280216 0.012604635 -0.087976411
-0.019308385 0.020415131 -0.11301423
-0.0035450079 0.01102452 -0.11404125
-0.010185087 0.0041736756 -0.11404288
-0.041212704 0.07480485 -0.092530109
-0.035971206 0.071030438 -0.097782262
-0.03194207 0.067438416 -0.10181883
-0.030990509 0.063993424 -0.10277083
-0.030040599 0.060554393 -0.10372118
-0.029092401 0.057121336 -0.10467027
-0.028145783 0.053694218 -0.10561731
-0.027200786 0.05027302 -0.10656274
-0.027234165 0.046786871 -0.10652749
-0.026287001 0.04336093 -0.10747507
-0.025341477 0.03994092 -0.10842101
-0.024397595 0.036526833 -0.10936531
-0.023455331 0.033118647 -0.11030801
-0.02444212 0.02940587 -0.10931703
-0.026438465 0.025448451 -0.10731407
-0.029517932 0.021175649 -0.10422479
-0.035975073 0.016031295 -0.097750112
-0.045299765 0.0099450843 -0.088400766
0.010488347 0.0084211389 -0.11513192
-0.019713707 0.0074360506 -0.1140449
-0.018766573 0.00031547318 -0.11499058
-0.025445426 0.070667364 -0.10871194
-0.041024912 0.068579629 -0.093124002
-0.047381703 0.068236284 -0.073340386
0.0049302918 0.061121911 -0.1152233
-0.012863535 0.055706296 -0.11520128
-0.024613054 0.051997501 -0.10954481
-0.033958025 0.048933536 -0.10019466
-0.043736372 0.04572748 -0.090410888
-0.047342304 0.043956492 -0.061789211
-0.00014744273 0.037281767 -0.11521699
0.010190864 0.033735603 -0.11522987
-0.047416747 0.031172581 -0.083614536
-0.028808799 0.027577395 -0.10534648
-0.0034357735 0.023863688 -0.11521303
-0.047313198 0.019677574 -0.053256296
-0.035702772 0.017994707 -0.098448835
-0.01586828 0.01485663 -0.11519732
-0.047166903 0.0033772269 -0.010208474
-0.044647835 0.0079972483 -0.089498855
-0.041924935 0.0045038261 -0.092223421
-0.028808799 0.0005855381 -0.10534648
-0.020841483 0.071823351 -0.11197124
-0.028231483 0.068381265 -0.1045808
-0.037309024 0.064923771 -0.095503546
-0.046415847 0.061454996 -0.086396396
-0.046892367 0.057730183 -0.066667162
0.00087722653 0.052530289 -0.11442766
-0.021164099 0.049675781 -0.11164892
-0.020230861 0.046080466 -0.11258222
-0.046892438 0.042500693 -0.070249014
-0.0085085137 0.039005134 -0.1144127
-0.045650002 0.037720926 -0.087162718
-0.046733435 0.025013607 -0.001806067
-0.037104428 0.031545345 -0.095708117
-0.04679694 0.020943364 -0.031956334
-0.028417638 0.025267562 -0.10439535
-0.046833966 0.016315259 -0.049669128
-0.027451823 0.018957609 -0.10536195
-0.046829954 0.0088281883 -0.049323283
-0.039610781 0.012703516 -0.093202651
-0.038720418 0.0088341571 -0.094093084
-0.028979218 0.0035177169 -0.10383464
-0.033266935 0.07219243 -0.099579901
-0.038668975 0.066747814 -0.094177261
0.013120309 0.071582824 -0.11450686
-0.026318803 0.057666209 -0.10652749
-0.043995202 0.0535326 -0.088850543
0.011516536 0.056050371 -0.11449507
-0.026534606 0.044713881 -0.10631143
-0.043983892 0.040732495 -0.088861629
0.013101534 0.041690215 -0.11449201
-0.022416392 0.032121789 -0.1104294
-0.0077986112 0.029970342 -0.11443529
-0.046922885 0.026821785 -0.077768035
0.0025000579 0.024670204 -0.11445766
-0.042269085 0.019713592 -0.090575159
-0.046791408 0.023380077 -0.015759941
-0.033829324 0.013722768 -0.099015415
-0.046866927 0.013453757 -0.048740584
-0.020392405 0.0077932798 -0.11245243
-0.046948455 0.0054092691 -0.085199513
-0.046790782 0.0043994812 -0.01121663
-0.023711639 0.075292058 -0.11005414
-0.021685751 0.068062536 -0.11208776
0.016479723 0.066496 -0.11516035
-0.0063558971 0.059735108 -0.11515032
-0.020679755 0.055143565 -0.11310189
-0.029702753 0.053894188 -0.10406085
-0.038376354 0.05224609 -0.09536922
-0.046982214 0.05584731 -0.069670945
0.018275797 0.041915845 -0.1151558
0.0087076332 0.037394051 -0.11515115
0.0021016914 0.033239163 -0.11514818
-0.0042887628 0.029219816 -0.11514489
-0.0092606107 0.02539452 -0.11514221
-0.011709828 0.021783849 -0.11514059
-0.01053914 0.018378036 -0.11514046
-0.0093718506 0.014982561 -0.11513998
-0.0070022717 0.011628786 -0.11514034
-0.0021854073 0.0083164359 -0.11514133
0.0026868563 0.0049659847 -0.11514232
0.0076154792 0.0015767826 -0.11514332
0.0049809031 0.074568301 -0.11413069
0.0014082134 0.064099245 -0.11412265
0.0068589621 0.058322031 -0.11412071
-0.042863287 0.062636286 -0.089470863
-0.013152672 0.041546725 -0.11410275
-0.04456158 0.050854959 -0.087785177
-0.0029371122 0.032857653 -0.11410036
-0.026332242 0.0293795 -0.10607652
0.047165908 0.049939346 -0.086884767
0.0080748489 0.020139029 -0.11409625
-0.0087614004 0.013067822 -0.11408532
-0.020158231 0.0082829362 -0.11228981
-0.026755072 0.006979668 -0.10568239
-0.031631034 0.0048503801 -0.10079996
-0.033500798 0.0015739395 -0.098931238
-0.03145333 0.00012894964 -0.094075337
-0.026315214 0.00013305921 -0.086074859
-0.015383152 0.00013786278 -0.078569107
-0.0030685747 0.00014041585 -0.070119932
0.00061821443 0.00014543867 -0.057646509
-0.018815925 0.00015469971 -0.036741979
0.032477293 0.00016351498 -0.026600808
0.023720324 0.00017506637 0.0061910762
-0.0034798537 0.027929023 0.028310914
-0.031525426 0.026287859 0.016464768
0.016786348 0.016552864 0.028314127
-0.02096183 0.00014149761 0.025821071
-0.002185192 0.00014356509 0.025855457
0.010887166 0.00014541511 0.024527419
0.015641754 0.00014733039 0.021279478
0.013780297 0.00014870567 0.016454725
0.01190378 0.022168877 -0.0076503586
-0.0041740718 0.019569034 -0.014481688
-0.026632523 0.00015041437 -0.0066098101
0.040999763 0.00015134754 0.0039595342
0.01658676 0.00015334797 -0.0066954005
-0.0078132637 0.00015544443 -0.017643079
-0.025466381 0.00015612574 -0.027499976
-0.037188414 0.000158041 -0.03646626
-0.043890141 0.0001600523 -0.044760864
-0.042190168 0.00016177367 -0.051710855
-0.03131615 0.00016446266 -0.057194337
-0.010397837 0.00016597204 -0.06106909
0.021549528 0.00017035523 -0.063183501
-0.023942051 0.00017090244 -0.085318439
-0.015561171 0.00017450284 -0.097415186
0.0056781201 0.036800358 0.02860013
0.0038751119 0.022467926 0.028587561
0.019305579 0.0097185718 0.027646476
-0.0033740865 0.0075560268 0.028576449
0.020743432 0.00014167881 0.024590084
0.035434771 0.0085946815 0.011490258
0.042246137 0.0098790573 0.0046639168
0.041345794 0.0030887537 0.0055810651
0.033930857 0.00014666175 0.0049706595
0.020576989 0.00014805155 0.003039852
-0.0031525793 0.018919641 -0.014321816
-0.021712769 0.00015140552 0.001722694
0.043566354 0.00015164651 -0.015517775
0.015017852 0.00015367049 -0.015210825
-0.0084500071 0.00015768042 -0.016269987
-0.025055816 0.0001572691 -0.019085106
-0.03421855 0.00015882921 -0.02381243
-0.03528697 0.00016129894 -0.030618044
-0.030493714 0.00016349868 -0.039069228
-0.01776764 0.00016669503 -0.049639359
0.0052292407 0.0001674017 -0.062855743
0.03951209 0.00016955614 -0.078986019
-0.0019234247 0.00017298439 -0.08326219
0.016910005 0.00017521495 -0.1013668
0.011560557 0.018171934 0.02908776
-0.009311554 -0.00082381 0.025774827
0.011835887 -0.00082339329 0.021185812
0.002407826 -0.00082208856 0.016438993
-0.014699265 -0.00082163198 0.011526584
0.013713861 -0.00082115544 0.0064395238
0.044224329 -0.00082171534 0.0025042957
0.02305576 -0.00081949029 -0.0015398288
-0.0058091879 0.016329654 -0.013171583
-0.027655935 -0.00081915321 -0.0099681281
0.04652993 -0.00081936526 -0.012883903
0.031017985 -0.00081796997 -0.017363532
0.017788505 -0.00081702595 -0.021974057
0.0097206691 -0.00081656931 -0.026721248
0.0042288252 -0.00081556372 -0.031611886
0.0042935628 -0.00081401441 -0.036652595
0.0072671194 -0.00081455073 -0.041848607
0.016240126 -0.00081347633 -0.047209784
0.028501209 -0.00081237638 -0.052742999
-0.047518123 -0.00081215537 -0.060401812
-0.026492698 -0.00081097393 -0.0663701
0.0047544786 -0.00080860383 -0.072541766
0.037079223 -0.00080850959 -0.078924164
-0.011550577 -0.00080637867 -0.087786324
0.0033796832 -0.00080536405 -0.097074397
0.012272487 -0.00080312073 -0.11187793
-0.0010360922 -0.00093119883 0.027625456
-0.0038103443 -0.00093107385 0.02353275
0.029365538 -0.00093070063 0.00024930688
0.027995775 -0.000931121 -0.0048445058
0.035889577 -0.00093043782 -0.015348564
0.033385083 -0.00093029288 -0.020034499
-0.014768529 0.020333271 -0.0028796184
-0.016512774 -0.00092920574 -0.0025394082
-0.039315071 -0.0009299487 0.0056453943
0.020715714 -0.00092929992 -0.031917218
-0.014290379 -0.00092948112 -0.016889418
0.040540282 -0.00092822366 -0.051568929
0.0015161213 -0.00092839205 -0.034379322
-0.034401767 -0.00092917308 -0.01904662
0.025269285 -0.00092790101 -0.056638349
-0.008419225 -0.00092806417 -0.042721767
-0.038844734 -0.00092824717 -0.030757407
0.027249714 -0.00092754414 -0.072175249
0.0005719777 -0.00092711108 -0.062504165
-0.013533656 -0.00092726148 -0.060108893
-0.014745172 -0.00092743902 -0.0651761
-0.0014048456 -0.00092635001 -0.078656062
0.024194615 -0.00092588976 -0.099240527
-0.0085725673 -0.00092632283 -0.088632226
-0.018860469 -0.00092610717 -0.091058046
-0.044218987 -0.00092617789 -0.087231308
0.047105405 0.034517616 -0.014262731
0.047116544 0.025314907 -0.024406658
0.03695178 0.00015887088 -0.0010990753
0.025416696 0.00015887451 0.011814194
0.047112592 0.020851126 -0.049465682
0.026524657 0.00016065569 -0.0043481314
0.047141749 0.0027552082 -0.050157007
0.015552507 0.00016203098 0.00094732555
0.043109737 0.00016189327 -0.055566706
0.017789992 0.00016243324 -0.018609343
0.034144849 0.0001628192 -0.05491814
0.046149883 0.00016319247 -0.083390273
-0.015048712 0.015727507 2.0094871e-05
0.0055910521 0.00016312541 -0.026016515
0.015661886 0.00016459856 -0.051403414
0.02523735 0.00016501351 -0.076020539
-0.029205615 0.00016455687 0.012664017
-0.018416692 0.00016498451 -0.014535881
-0.0052458015 0.00016541757 -0.046246406
0.0096530318 0.00016643411 -0.081276722
-0.039482269 0.00016656093 -0.0033524116
-0.021563746 0.00016817903 -0.044324595
0.0027816964 0.00016868277 -0.097228549
-0.016111299 0.0001688404 -0.075555101
-0.0098859034 0.000169625 -0.10026449
-0.018811218 0.00017130651 -0.10240412
0.047559544 0.037550855 -0.027125778
0.045892648 0.0001568922 -0.056630969
0.041881822 0.0001567708 -0.051238474
0.037812881 0.00015722198 -0.022434304
0.035067335 0.00015772933 -0.082993664
0.030898884 0.00015759162 -0.01516928
0.028085712 0.00015809898 -0.049909208
0.025244899 0.00015802469 -0.076573662
0.022375805 0.00015853024 -0.097862579
0.018018644 0.00015840701 0.022514142
0.015077435 0.00015833091 0.011449115
0.012106393 0.00015884914 -0.019815573
0.0091055855 0.00015816241 -0.060050197
0.0060738362 0.00015868607 -0.10504327
0.0014683536 0.00015794496 -0.023682065
-0.001641703 0.00015785075 -0.047044877
-0.0047842618 0.00015838527 -0.06327109
-0.0079593575 0.00015831461 -0.081149988
-0.011167996 0.00015884914 -0.099216461
-0.016044119 0.00015872593 0.02363533
-0.01933833 0.00015927496 0.004374702
-0.022667734 0.00015982581 -0.021168331
-0.026032573 0.00015975151 -0.06225881
-0.031148449 0.00016027517 0.00075754581
-0.034605578 0.00016084775 -0.077926755
-0.039862223 0.0001613986 -0.071925558
-0.047007039 0.00016190232 -0.012215608
-0.04542267 -0.00093150145 0.0024880422
-0.029581202 -0.00093190192 0.0058875834
0.013167915 -0.00092993234 0.025997553
0.0092222849 -0.00093033997 0.017896323
0.020257989 -0.00092963869 0.018235648
0.028006768 -0.00092950463 0.016576329
0.013715216 0.014199547 -0.00057818141
0.012663193 0.0105343 -0.0055786553
-0.0083480999 -0.00092855154 -0.019960443
-0.032817118 -0.00092929631 -0.03883015
0.026890669 -0.00092922751 -0.0080263223
-0.0098845363 -0.00092823448 -0.034056798
0.04581213 -0.00092932716 -0.0056325905
0.0099373069 -0.00092891394 -0.03128418
-0.025269276 -0.00092789927 -0.056638341
0.036599111 -0.00092840655 -0.024838109
0.0049385456 -0.00092737016 -0.048311371
-0.025969027 -0.00092754414 -0.071443662
0.043716196 -0.00092806772 -0.035337519
0.029584622 -0.00092763471 -0.049041383
0.028309828 -0.00092779787 -0.055496376
0.040223598 -0.00092734123 -0.054516137
-0.012167631 -0.00092651666 -0.092369683
0.031987969 -0.00092668709 -0.073210545
0.020698551 -0.00092648587 -0.087913677
0.046407286 -0.00092628656 -0.081679121
-0.047559541 0.037550855 -0.033706468
-0.045892648 0.0001568922 -0.0092765205
-0.041881822 0.00015676355 -0.015808202
-0.037812889 0.00015721473 -0.044395357
-0.033684608 0.00015767678 -0.095520593
-0.030898983 0.00015700454 -0.051291693
-0.028085822 0.00015751009 -0.016401822
-0.025244905 0.00015800657 0.0090111382
-0.020930635 0.00015848674 -0.10646607
-0.018018646 0.00015840339 -0.095391005
-0.015077442 0.0001583128 -0.08420483
-0.012106393 0.00015884552 -0.064296685
-0.0091052158 0.00015937281 -0.02688078
-0.0045464458 0.00015863532 -0.1066408
-0.0014681391 0.00015855198 -0.063119583
0.0016419331 0.00015847407 -0.026490234
0.014122137 0.024142224 -0.0046138982
0.010151627 0.0055260714 0.0096775526
0.01278483 0.00015880565 -0.11430159
0.01604441 0.0001593583 -0.096612178
0.019338332 0.00015928039 -0.077223569
0.022667736 0.00015983667 -0.050032217
0.026032569 0.00015974426 -0.0088031264
0.031148449 0.00016027337 -0.07160867
0.03460484 0.00015954494 0.0087657785
0.039861433 0.00016007767 0.0014331684
0.047006622 0.00016124458 -0.057981927
-0.047919519 0.035698965 -0.02578507
-0.047850102 0.0059224623 -0.019405952
-0.044239476 0.00015950146 -0.01713812
-0.047930095 0.031646285 -0.055913698
-0.025333343 0.00015936012 0.0035606227
-0.046567328 0.00016082602 -0.043917432
-0.021393206 0.00016019725 -0.0037459088
-0.047872465 0.0035400132 -0.064433135
-0.018565662 0.00016205634 -0.013757358
-0.039384324 0.00016261626 -0.061294112
-0.019580482 0.00016299677 -0.031513147
0.010882568 0.024339965 -0.010071136
0.013065562 0.00016326313 0.014941669
-0.031498581 0.00016439744 -0.076877743
-0.016274685 0.00016480332 -0.056056745
-0.00074864266 0.00016414012 -0.034821358
0.015089864 0.00016456051 -0.013159784
0.031962734 0.00016498451 0.010245662
-0.011214691 0.00016621302 -0.080227099
0.0094814738 0.00016722956 -0.050219588
0.031351529 0.00016712265 -0.01822797
-0.0036877976 0.00016784926 -0.094680004
0.030778833 0.00016952533 -0.040083524
0.027178921 0.00017090606 -0.059702408
0.046995156 0.00017048206 -0.036916204
0.031499885 0.00017312393 -0.088745274
0.0090860147 0.061794382 -0.11379304
-0.0025263352 0.051343411 -0.11379645
-0.027880222 0.065986194 -0.10402458
-0.017000986 0.034973603 -0.11380228
0.0047423076 0.01858924 -0.11381014
0.036047149 0.023731507 -0.097479559
0.0065435716 0.0037155142 -0.11381609
-0.016721981 0.0042385915 -0.1138148
0.038814202 0.005735049 -0.094669431
0.028621333 0.00014797544 -0.096763529
0.025624491 0.00014944859 -0.092359327
0.026210265 0.00015099239 -0.086953267
0.030656913 0.00015225173 -0.08046788
0.039272241 0.00015395498 -0.072816357
-0.041019414 0.00015767498 -0.085499801
-0.031254075 0.00015843601 -0.077061929
-0.023752196 0.00016003961 -0.068729714
-0.024522448 0.00016174468 -0.061726201
-0.034318894 0.00016568031 -0.056169663
0.041586664 0.0001655408 -0.029445784
0.010658654 0.00016807212 -0.02712146
-0.032346528 0.00017265644 -0.026722793
0.00087265443 0.012160128 0.014915128
-0.015050885 0.00017979747 0.0052857087
-0.015223798 0.064887308 -0.11413484
-0.010831673 0.048461884 -0.11412116
-0.041689914 0.067251183 -0.090571158
-0.040250782 0.053374588 -0.092043176
-0.021895202 0.020395402 -0.11050188
0.009173559 0.01588778 -0.11409645
-0.022435751 0.0063247099 -0.10999031
0.039572649 0.034587741 -0.094399713
0.0085477792 0.00014797001 -0.11086478
-0.0017700971 0.00014872559 -0.10399207
-0.0053668818 0.00014985808 -0.098291993
-0.0029722208 0.00015175705 -0.093594514
0.0033431984 0.00015375024 -0.089448787
0.013889316 0.00015584849 -0.085898459
0.029008942 0.00015691214 -0.082993001
0.043598522 0.00015921515 -0.079638399
-0.044038199 0.00015804463 -0.056875467
-0.045252014 0.00016007948 -0.049593959
0.043296706 0.00016483231 -0.058045309
0.027751636 0.00016722956 -0.046724394
0.0016440164 0.00016977539 -0.032676477
-0.036083702 0.00016968659 -0.015633037
0.010424065 0.013536729 0.011066312
0.014927666 0.001883616 0.0046401359
0.021400245 0.00018342324 0.024745373
-0.02162002 0.045744631 -0.11111223
0.01681806 -0.00051711948 -0.11458309
0.0048784567 -0.00082174072 -0.10979681
0.021100365 -0.00082127505 -0.10475429
-0.013836885 -0.00082045968 -0.10085353
-0.035701402 -0.00082007557 -0.096846543
0.042855915 -0.00081908435 -0.091330558
-0.039324 -0.00081881438 -0.088495351
-0.021270966 -0.00081839942 -0.084141754
-0.0053944816 -0.00081697339 -0.079662077
0.008210103 -0.00081651501 -0.075051792
0.016664004 -0.00081656029 -0.070304871
0.022553593 -0.0008160728 -0.065414548
0.022898853 -0.00081506354 -0.060374208
0.020347916 -0.00081454898 -0.055177517
0.011810943 -0.00081400538 -0.049816724
-9.2043756e-10 -0.00081182376 -0.044282701
-0.018294157 -0.0008123492 -0.038570337
-0.040294565 -0.00081061327 -0.032666806
0.025356984 -0.00080975448 -0.024485396
-0.0064485129 -0.00080969284 -0.018103072
0.046201933 -0.00080757827 -0.0092410035
1.7975342e-09 0.014777086 0.014045312
0.015488394 -0.00080519548 0.0073127574
-0.0017753971 -0.00080319145 0.020035135
-0.028852018 -0.00093100319 -0.099019803
0.0041991905 -0.00093057554 -0.11057298
-0.035349365 -0.00093020225 -0.083496094
0.0069423029 -0.00093006459 -0.10156945
-0.0097086923 -0.00093023124 -0.087411582
-0.020675335 -0.00092984352 -0.076429024
-0.02342977 -0.0009294448 -0.070064195
-0.020192595 -0.00092962972 -0.067047015
-0.0083884997 -0.00092922925 -0.068846554
0.0097349873 -0.00092882517 -0.074177183
0.03680221 -0.0009289991 -0.084536411
-0.02485932 -0.00092833588 -0.045864128
0.0098110372 -0.0009278974 -0.060427457
0.043787614 -0.00092807499 -0.074508592
-0.020463804 -0.00092798262 -0.034203928
0.0086097652 -0.00092694437 -0.045335338
0.036879994 -0.00092710194 -0.055916436
-0.032753605 -0.00092700595 -0.012373636
-0.0096734595 -0.00092717988 -0.019831408
0.0032350454 -0.00092671422 -0.021379862
-0.016944608 -0.00092561066 -0.0039252914
0.038728744 -0.00092540233 -0.027665339
0.012195357 0.018556526 0.008155372
0.034418467 -0.00092468667 -0.010628882
0.036847968 -0.00092447281 -0.0034121925
0.041736472 -0.00092383317 0.0048479484
-0.045144409 0.030984502 -0.08819557
-0.047107641 0.031036092 -0.069154106
-0.039396394 0.0001580863 -0.088749066
-0.024745524 0.00015871869 -0.10448907
-0.029022358 0.00015920428 -0.088109836
-0.020127809 0.00016019 -0.095595188
-0.047123145 0.010716339 -0.030382369
-0.020507963 0.000161067 -0.079716437
-0.040002365 0.00016141853 -0.037781827
0.0016196873 0.00016146745 -0.1042989
-0.011439315 0.00016234988 -0.073836274
-0.021373075 0.00016325589 -0.048964698
-0.028772622 0.0001636527 -0.028599875
-0.035628684 0.0001640604 -0.0090955179
0.020913603 0.00016468554 -0.10183361
0.01085513 0.00016456051 -0.076119192
-0.00083294424 0.00016498633 -0.047274359
-0.0134809 0.00016542664 -0.016520504
-0.027846036 0.00016643411 0.017533442
0.021003542 0.00016828231 -0.059865329
0.0021389176 0.00016643772 -0.017168114
-0.017128792 0.00016809387 0.026448393
0.019181596 0.00016943474 -0.02708683
0.034074586 0.00017083358 -0.04101079
0.024873117 0.00017040959 -0.010407969
0.024557875 0.00017216358 0.0092749698
0.030092726 -0.00093107199 -0.10119171
0.017814973 -0.000931188 -0.10095015
0.016322626 -0.00093106658 -0.095867604
-0.017126653 -0.00093013525 -0.11044554
0.028046176 -0.00093055022 -0.078492895
0.01186486 -0.00093017519 -0.083042763
0.0025989646 -0.0009297746 -0.083569244
0.00041093832 -0.0009293778 -0.079977863
0.005468423 -0.0009295608 -0.072171226
0.017944146 -0.00092973845 -0.060048722
0.038016487 -0.00092874188 -0.043506172
-0.026504448 -0.00092865294 -0.07693439
0.0047239237 -0.00092883967 -0.053881507
0.038983226 -0.0009278123 -0.029011281
-0.024416231 -0.00092833588 -0.061647259
0.0075210207 -0.00092849723 -0.037956938
0.036129586 -0.00092745357 -0.016076313
-0.031300168 -0.00092674507 -0.0508518
-0.0065341257 -0.00092752598 -0.03100997
0.0081178546 -0.00092771987 -0.016847957
0.00043602087 -0.00092661812 -0.015343273
-0.035524499 -0.00092550204 -0.029890038
0.016336536 -0.00092594227 0.0078930659
-0.029805224 -0.00092480617 -0.012219298
-0.021088842 -0.00092523749 0.0012615883
-0.045791924 -0.00092434592 -0.0041407575
0.037996456 0.063974611 -0.094652258
0.02337769 0.047647025 -0.10928591
0.029180933 0.014215905 -0.10351803
0.029081117 0.00015839614 -0.10213687
0.047861014 0.0039119585 -0.05347468
0.047862656 0.0024751318 -0.045794256
0.012448856 0.00015987473 -0.10666203
0.032800987 0.00016137866 -0.060319062
0.0068007107 0.00016074447 -0.10167246
0.038761005 0.00016230096 -0.033663601
0.020188859 0.00016267967 -0.061130334
0.0039502112 0.00016202011 -0.084204786
-0.010567367 0.00016293154 -0.10400072
0.039071001 0.00016459674 -0.0027973545
0.025932895 0.00016447896 -0.019733852
0.011127163 0.00016544294 -0.039577808
-0.0046859123 0.00016476707 -0.061120715
-0.022256173 0.000166329 -0.085724421
0.020568298 0.00016755752 0.0042210752
-0.00087234034 0.00016633625 -0.027069988
-0.024255311 0.00016910133 -0.061740082
0.013353327 0.00016809025 0.019541442
-0.015852327 0.00016978264 -0.025338784
-0.00034636338 0.00017176132 0.016205685
-0.0087759942 0.00017136631 0.014400924
-0.043978255 0.00017158556 -0.035914849
-0.044170719 0.00017269992 -0.0065980796
0.027816705 0.075967126 -0.097063169
0.0090589672 0.075963341 -0.073215261
0.001774975 0.07596077 -0.08517421
0.030145505 0.037983265 -0.0014949098
-0.00742506 0.075958274 -0.094990112
-0.018606713 0.075957015 -0.063254431
0.013930532 0.037976589 -0.021998003
0.0072124684 0.032680348 0.011998548
-0.022167839 0.075954303 -0.10983357
-0.02891504 0.075952888 -0.09555313
-0.035440378 0.07595183 -0.081742927
-0.041754283 0.075950801 -0.068380192
-0.014374921 0.037970517 -0.040324118
-0.025165446 0.037969194 -0.010998604
-0.026164144 0.055567738 -0.10722105
-0.047212787 0.066987008 -0.07215783
-0.035848599 0.037965897 -0.027652266
-0.03665993 0.050838906 -0.096718833
-0.041522052 0.037964035 -0.044479541
-0.04053748 0.043849759 -0.09285064
-0.047164202 0.027758911 -0.025618343
-0.047173709 0.030692033 -0.058817241
-0.047177315 0.029250642 -0.077462897
-0.047162309 0.016609961 -0.064921938
-0.047157343 0.0064809965 -0.085373364
0.026336221 0.075972952 -0.075689241
0.010568152 0.075969055 -0.078914374
-0.0097942241 0.075965166 -0.11011036
-0.017240277 0.075962543 -0.098894633
-0.020076092 0.075960971 -0.080131769
0.036821861 0.03798186 -0.022857865
-0.0294262 0.075958192 -0.073828764
0.019931743 0.037976418 -0.034970462
0.025754457 0.037977245 0.016205287
-0.041397806 0.075954832 -0.06684877
-0.0016441264 0.037973467 -0.051525138
0.00074510701 0.037970893 -0.018830372
0.0037355125 0.037970647 0.015927806
-0.047501143 0.065527275 -0.070046224
-0.020254696 0.037968453 -0.044088829
-0.015816359 0.037968785 -0.0049008946
-0.042980921 0.040890444 -0.09086211
-0.035686679 0.037965745 -0.051133446
-0.030025614 0.037964594 -0.0082267243
-0.047514405 0.03513946 -0.073283851
-0.040759623 0.03796234 -0.01696494
-0.047516685 0.026499739 -0.060647774
-0.033905338 0.024876205 0.012774215
-0.047512263 0.029620988 -0.012553971
-0.044403646 0.021771554 0.0022891229
-0.047520701 0.0065152827 -0.0055352291
0.011376576 0.07660497 -0.075388305
-0.011419734 0.076596253 -0.066963129
-0.029985856 0.076588966 -0.089715458
0.042642392 0.038624007 -0.056373928
-0.048322894 0.075376198 -0.085719392
0.020612501 0.03861535 -0.043086074
0.013415461 0.038269121 0.0025103041
-0.031695154 0.056986336 -0.10288686
-0.048321676 0.063334562 -0.07401213
-0.0113201 0.038602956 -0.054843236
-0.01736 0.038600661 -0.030036507
-0.023082132 0.038598835 -0.0095356125
-0.02851042 0.038597133 0.011373026
