# .PCD v0.7 - Point Cloud Data file format
VERSION 0.7
FIELDS x y z
SIZE 4 4 4
TYPE F F F
COUNT 1 1 1
WIDTH 1384
HEIGHT 1
VIEWPOINT 0 0 0 1 0 0 0
POINTS 1384
DATA ascii
-0.016025301 0.27079451 0.78184086
-0.015373367 0.27094188 0.7820245
-0.014729979 0.27109358 0.78221869
-0.014092462 0.27123985 0.78241479
-0.013464302 0.27138343 0.78261912
-0.012843703 0.27153075 0.78283656
-0.012586947 0.27176073 0.78273606
-0.011618759 0.27178892 0.78326845
-0.011020348 0.27192023 0.78350222
-0.010424784 0.27204245 0.78374481
-0.0098291617 0.27215961 0.7839871
-0.009241676 0.27227321 0.78423983
-0.0078602917 0.27226394 0.7850709
-0.0072667948 0.27238855 0.78532684
-0.0062886579 0.27247909 0.78589004
-0.004932167 0.27252555 0.78677851
-0.0043447372 0.27268502 0.78705376
-0.0037652072 0.27283999 0.78733927
-0.0024248934 0.27294713 0.78827512
-0.0014667884 0.27308962 0.78889275
-0.00090072234 0.27328235 0.7892158
0.00041705609 0.27342609 0.79018092
0.00097507995 0.27363369 0.79050988
0.0018957251 0.27383861 0.79116684
0.0028274928 0.27405557 0.79181856
0.0033697125 0.27427292 0.79220188
0.0039066658 0.27448678 0.79259419
0.0048397114 0.27473515 0.79327792
0.0053699515 0.27492994 0.79369473
0.0062839244 0.27518985 0.79440314
0.0068063731 0.27537695 0.79483068
0.0077363113 0.27564716 0.79553473
0.0082326634 0.27582365 0.79600304
0.0091506559 0.27610597 0.79672569
0.0096330047 0.2762638 0.7972132
0.010103395 0.27640015 0.79771549
0.011018695 0.27669412 0.7984556
0.011939049 0.27699766 0.79919773
0.012408257 0.27710459 0.79969472
0.013338919 0.27740988 0.80041951
0.013811743 0.27749225 0.80090994
0.014280824 0.27755249 0.80140096
0.015225445 0.27786314 0.80211174
0.016140195 0.27818769 0.80287671
0.016631154 0.27821875 0.80332935
0.017581858 0.27854636 0.80404103
0.018530611 0.27888241 0.8047598
0.019028064 0.2788941 0.80520105
0.019998206 0.27923718 0.80589151
0.020946836 0.27958849 0.80662781
0.021887736 0.2799494 0.80739194
0.022812203 0.2803165 0.80819112
0.023713019 0.28068861 0.80903155
0.024210799 0.2806693 0.80945379
0.025492495 0.28145623 0.81079334
0.026376424 0.28184804 0.81169456
0.02687344 0.28179935 0.81209517
0.027760159 0.28218246 0.81299305
0.028642127 0.28257117 0.81391186
0.029132228 0.2825003 0.81430382
0.029615657 0.28242242 0.81469578
0.030098595 0.28233677 0.81507975
0.030962462 0.28270057 0.81600463
0.031436801 0.28259572 0.81638181
0.032690994 0.28343371 0.81787086
0.033542216 0.28379473 0.81882584
0.034382194 0.28415117 0.81979793
0.034841783 0.28403187 0.82017636
0.035298135 0.28391185 0.8205539
0.036123969 0.28426003 0.82153958
0.036575194 0.28413692 0.82191628
0.037020627 0.28401262 0.82229441
0.037836723 0.28435457 0.82328975
0.038640961 0.28468648 0.82429451
0.039450094 0.28501725 0.82529873
-0.088937663 0.28495246 0.8195408
-0.088506795 0.2834903 0.81534755
-0.085716732 0.27979341 0.8037864
-0.085561492 0.27944836 0.80344081
-0.085015111 0.27891102 0.80225801
-0.083347373 0.27783835 0.7985909
-0.082733944 0.27733862 0.79744148
-0.082467318 0.27699676 0.79711151
-0.081000611 0.27621853 0.79440528
-0.080300033 0.27576706 0.79330677
-0.08002615 0.27543667 0.79295456
-0.078697257 0.2750006 0.79125381
-0.077872656 0.27464125 0.79024738
-0.077522196 0.27436957 0.78991807
-0.076612338 0.27406985 0.78897393
-0.075637206 0.27382058 0.7880978
-0.075210556 0.27357623 0.78779501
-0.074197255 0.27336699 0.78696251
-0.07318671 0.27315715 0.78614199
-0.071628951 0.27296376 0.78484935
-0.071158066 0.27277109 0.78457105
-0.070163809 0.27257884 0.78379488
-0.069139034 0.27241436 0.78307593
-0.068645857 0.27223274 0.78279537
-0.068131141 0.27204695 0.78252304
-0.067124553 0.27189875 0.78181338
-0.066592693 0.27171606 0.78154153
-0.066027641 0.27154008 0.7812978
-0.065442614 0.27136254 0.78106523
-0.064834602 0.27119556 0.78085214
-0.063806735 0.27112916 0.78021234
-0.063181937 0.27097636 0.78001511
-0.06254296 0.2708286 0.77982962
-0.06189397 0.27067652 0.7796464
-0.061232716 0.27052781 0.77947104
-0.060557574 0.2703822 0.7793107
-0.059869029 0.27025232 0.77916777
-0.059168484 0.27013558 0.77904183
-0.058466118 0.27002391 0.77891791
-0.057748459 0.26992351 0.77881533
-0.057319127 0.26958048 0.77914417
-0.056576692 0.26948479 0.77907366
-0.055824958 0.26941019 0.77901739
-0.055081159 0.2693361 0.77896428
-0.054315239 0.26926717 0.7789225
-0.053565349 0.26918635 0.77885711
-0.052799053 0.26911652 0.77880788
-0.05202318 0.26905471 0.77875459
-0.051247321 0.26900727 0.77871704
-0.050478861 0.26893926 0.77867293
-0.049706757 0.26889199 0.77863789
-0.0489255 0.26884258 0.77860653
-0.048139032 0.26881036 0.77857435
-0.047222972 0.26898921 0.77803499
-0.046451438 0.26895663 0.77801073
-0.045684583 0.26892886 0.77798301
-0.044908099 0.26891044 0.77796125
-0.044228967 0.26867184 0.77846128
-0.043440729 0.26867753 0.77846557
-0.042659964 0.26867205 0.77846116
-0.041878682 0.26867574 0.77845109
-0.041149337 0.26846474 0.77899808
-0.040355202 0.26847562 0.77898884
-0.039565947 0.26849246 0.77898926
-0.038750343 0.26874697 0.7784726
-0.037969347 0.2687709 0.77847499
-0.037191547 0.26879835 0.77846652
-0.036432367 0.26906031 0.77800655
-0.035673473 0.26908746 0.77802354
-0.03491585 0.26911202 0.77804178
-0.034152407 0.2691384 0.77805567
-0.03340178 0.26917109 0.77808237
-0.032637589 0.26922354 0.77810615
-0.031813931 0.26904127 0.77856797
-0.030964363 0.26885393 0.77904063
-0.030194916 0.26891252 0.77907503
-0.029436134 0.26897636 0.77913249
-0.028668504 0.26904696 0.77916956
-0.027916109 0.26911807 0.77922797
-0.027293025 0.2694571 0.77890265
-0.026708439 0.26977646 0.77863181
-0.026157325 0.27011874 0.77841586
-0.025448872 0.27021793 0.77852726
-0.0247487 0.27032441 0.7786516
-0.024054963 0.2704356 0.7787838
-0.023364842 0.27055046 0.77892017
-0.022459403 0.27045116 0.77938288
-0.021544432 0.27035576 0.77986115
-0.02085316 0.27048567 0.78000945
-0.020164225 0.27061602 0.78015667
-0.019236065 0.27053022 0.7806465
-0.018540902 0.27067065 0.78079325
-0.017864056 0.270814 0.78096002
-0.017190877 0.27096188 0.78113413
-0.016523782 0.2711139 0.78131258
-0.015863085 0.27126613 0.78149617
-0.015214453 0.27142408 0.78169465
-0.014571473 0.27158001 0.7818951
-0.013936789 0.27173492 0.78210229
-0.013312631 0.27189234 0.7823205
-0.013041844 0.27213997 0.7822246
-0.012082264 0.27218595 0.78276503
-0.011481086 0.2723237 0.78300196
-0.010885329 0.2724593 0.78324383
-0.0099123176 0.27250621 0.78379309
-0.0093158269 0.27263984 0.78403914
-0.0087295584 0.27277455 0.78429985
-0.0077459658 0.27285758 0.78485531
-0.0067618084 0.27294341 0.78541595
-0.0061766217 0.27308604 0.78568518
-0.0048212823 0.27316156 0.78658646
-0.0038563744 0.2732853 0.78718418
-0.003276516 0.27346224 0.78747946
-0.0019470615 0.27357498 0.78843015
-0.0013694754 0.27377748 0.78874087
-0.00042397092 0.27394563 0.78938526
0.00087368774 0.27409321 0.79035759
0.0014310682 0.27432466 0.7906971
0.0019825967 0.27455091 0.79105103
0.002904027 0.27477828 0.79171854
0.003444819 0.27499834 0.79210091
0.0043677818 0.27525634 0.7927922
0.0048971376 0.27546436 0.79320836
0.0058129518 0.27573764 0.79392999
0.0063325497 0.27594632 0.79436016
0.0072591859 0.27621907 0.79506946
0.0077658733 0.27640602 0.79551744
0.0082495017 0.27657992 0.79599589
0.0091558564 0.27687725 0.79674464
0.0096402979 0.27702403 0.79722041
0.010107557 0.27715403 0.79771489
0.011453047 0.27763984 0.79874539
0.011927648 0.27776325 0.79923302
0.012405721 0.27786028 0.79970419
0.01331498 0.27817577 0.80047256
0.013790944 0.27825239 0.80094659
0.014700573 0.2785736 0.80171841
0.015624335 0.27890083 0.80247188
0.016104097 0.27894968 0.80293953
0.016586848 0.27897811 0.8033976
0.017971201 0.27962083 0.80442667
0.018460149 0.27964601 0.80488044
0.019410977 0.27999097 0.80560577
0.020340146 0.28034669 0.80637741
0.021268833 0.28070784 0.80716062
0.021783482 0.28070721 0.8075639
0.023084411 0.28146139 0.80882853
0.023966108 0.28184664 0.80971515
0.024461653 0.28182539 0.81013709
0.025733527 0.2826339 0.81152046
0.0262309 0.28259158 0.81191999
0.027118811 0.2829785 0.81281763
0.027994346 0.28336966 0.81374466
0.028491393 0.28330597 0.81412983
0.028977871 0.28322971 0.81452042
0.029848058 0.28361061 0.81544942
0.030329764 0.28351736 0.81582797
0.030806422 0.28341368 0.81620282
0.031674571 0.28378037 0.81712556
0.032913093 0.28462139 0.81864882
0.033376776 0.28450406 0.81902784
0.03421374 0.28485981 0.82000107
0.034672204 0.28473881 0.82037866
0.035495628 0.28508806 0.82136774
0.036312133 0.28543305 0.82236707
0.036759783 0.2853063 0.82274741
0.037208188 0.28517917 0.82312238
0.038017534 0.28551516 0.82412314
0.038828041 0.28585219 0.82512534
0.039640043 0.28618535 0.82612765
-0.08823441 0.28434116 0.8154664
-0.085587181 0.28056967 0.80386078
-0.086038277 0.2807247 0.80527818
-0.085599631 0.28008151 0.80401886
-0.084731266 0.27930638 0.80195302
-0.083085656 0.27825803 0.79826826
-0.082488365 0.27772474 0.79709685
-0.081020385 0.27693263 0.79439068
-0.080788538 0.2765955 0.79402053
-0.080084361 0.27614689 0.79291111
-0.078794874 0.27567413 0.79117733
-0.078502677 0.27537426 0.79081112
-0.078187227 0.27505437 0.79044646
-0.077311546 0.27472466 0.78944284
-0.075798661 0.27444699 0.78794724
-0.075403251 0.27418041 0.78760892
-0.074399956 0.27395776 0.7867586
-0.073944174 0.27372092 0.78645593
-0.072402388 0.2735092 0.78509432
-0.071922563 0.27329579 0.78480422
-0.070928946 0.27308202 0.78398502
-0.069390506 0.27291736 0.78276598
-0.068385571 0.27273023 0.78204036
-0.067885332 0.27255517 0.78175241
-0.066409089 0.27242818 0.78064853
-0.065421626 0.27230373 0.78000939
-0.064882457 0.27217585 0.77976692
-0.064327106 0.27203703 0.77952784
-0.063756295 0.27189785 0.77930415
-0.062732108 0.27185237 0.77877378
-0.062146839 0.27173227 0.77856439
-0.061540104 0.27161837 0.77837276
-0.06091449 0.27150503 0.77820027
-0.060279202 0.27139282 0.77803761
-0.06001547 0.27112842 0.7781682
-0.058981776 0.27118492 0.77772057
-0.058314808 0.27109316 0.77758652
-0.057977736 0.27081159 0.77775919
-0.057277508 0.27072644 0.77765489
-0.056576524 0.27063575 0.77754456
-0.055865146 0.27055481 0.77744997
-0.055151705 0.2704719 0.77735031
-0.054431412 0.27039343 0.77726018
-0.053706806 0.27031177 0.77717024
-0.053222869 0.26999751 0.77746874
-0.052471872 0.26992258 0.77740192
-0.051720046 0.26985654 0.77732861
-0.050972007 0.26978099 0.77725017
-0.050213058 0.26971915 0.77720177
-0.049452394 0.26965624 0.77713901
-0.048530899 0.26982668 0.7766723
-0.047929209 0.26954237 0.77702594
-0.047022704 0.2697385 0.77658218
-0.046265151 0.26970503 0.77654821
-0.045505889 0.26967174 0.77652204
-0.044647399 0.26989055 0.77612394
-0.044073183 0.26942033 0.7769435
-0.043298312 0.26941511 0.77693081
-0.042525567 0.26941392 0.77692276
-0.041753374 0.26941735 0.77691805
-0.04102584 0.26918817 0.777385
-0.04024126 0.26921663 0.7773881
-0.03946263 0.26923627 0.77739751
-0.038673628 0.26927149 0.7774058
-0.037889533 0.26930109 0.77738935
-0.037121013 0.26933247 0.77741575
-0.036378633 0.26959151 0.77700925
-0.035619695 0.26961979 0.77703357
-0.034867417 0.26965129 0.77707499
-0.034111243 0.26968902 0.7771107
-0.033357665 0.26974425 0.7771641
-0.032521155 0.26956034 0.77754217
-0.031672772 0.26938099 0.77796179
-0.03091152 0.26944959 0.77802658
-0.030146208 0.26952359 0.77807891
-0.029386321 0.26959535 0.77815008
-0.028640354 0.26966396 0.77823216
-0.028029498 0.26998082 0.77795523
-0.027452949 0.2703054 0.77774191
-0.026733022 0.27040914 0.77785558
-0.026198465 0.27073091 0.7776652
-0.025680522 0.27102247 0.77746481
-0.024998473 0.27112958 0.77760369
-0.024322428 0.27123606 0.77774745
-0.023653308 0.27135035 0.77789837
-0.022990169 0.27147117 0.77805996
-0.022089956 0.27139863 0.77851486
-0.021428576 0.27152088 0.77868158
-0.020769807 0.27164575 0.77885169
-0.01984727 0.27158952 0.77931613
-0.019190645 0.2717185 0.77949327
-0.018252665 0.27167311 0.77996486
-0.017599573 0.27181122 0.78015178
-0.016953349 0.27195096 0.78034484
-0.016315486 0.27209026 0.78054464
-0.015686641 0.27223194 0.78075343
-0.014735925 0.27223688 0.78126621
-0.014112949 0.2723833 0.78148395
-0.013504568 0.2725336 0.78171843
-0.012898704 0.27267116 0.78194886
-0.012306792 0.27281931 0.78219903
-0.011721585 0.27294427 0.78244585
-0.010756087 0.27301827 0.78299952
-0.0097855488 0.27308401 0.78355908
-0.0091969017 0.27322775 0.78382027
-0.0086149592 0.27336514 0.78408605
-0.0076337839 0.27345976 0.7846511
-0.0066521103 0.27356341 0.78521961
-0.0056846095 0.27368516 0.78581226
-0.0043351026 0.27376714 0.78672302
-0.0037569744 0.2739546 0.78702414
-0.0028023748 0.274111 0.78765172
-0.0014770057 0.27423376 0.78860992
-0.00089914078 0.2744548 0.78892756
3.9854534e-05 0.27464217 0.78959566
0.0013283032 0.27479428 0.79055703
0.0018809533 0.27504227 0.79090625
0.0024292676 0.27529055 0.7912693
0.0033452527 0.27553993 0.79194903
0.0038903656 0.27578673 0.79234368
0.0044174506 0.27601501 0.79274786
0.0053395829 0.27628928 0.79347622
0.0058590285 0.27650601 0.7938996
0.0063645062 0.27670565 0.7943396
0.0068650325 0.27688572 0.79478294
0.007355094 0.27704707 0.79523712
0.0082617607 0.27733624 0.79599375
0.0087394156 0.27748087 0.79646444
0.0096303606 0.2777904 0.79725569
0.010100832 0.27791041 0.79773134
0.011423321 0.27841988 0.79882276
0.011899354 0.27853173 0.79929358
0.012364113 0.27862889 0.79977918
0.013273116 0.27894625 0.80055171
0.014178729 0.27927428 0.80133331
0.014648374 0.27934143 0.80180979
0.015549723 0.2796751 0.80260521
0.016033709 0.27971509 0.80305624
0.016971026 0.28004768 0.80379611
0.017874477 0.28039232 0.80459547
0.018784663 0.28074563 0.80539078
0.019298006 0.28075564 0.80579513
0.020612724 0.28147453 0.80699652
0.021122592 0.28147486 0.80740404
0.022038177 0.28184548 0.80821878
0.023317361 0.28262544 0.80954486
0.023815814 0.28260481 0.80995959
0.024693483 0.28299525 0.81086481
0.025964281 0.2838234 0.81226981
0.026463492 0.28377458 0.812666
0.026960511 0.28371963 0.81305689
0.027837321 0.28410727 0.81397563
0.028716082 0.28451082 0.81491107
0.029206458 0.28442886 0.81528759
0.030084305 0.28481698 0.81621397
0.030566093 0.28471166 0.8165822
0.031043321 0.28460243 0.81695098
0.031903528 0.28496981 0.81788963
0.032744329 0.28532946 0.81885606
0.033208299 0.28521124 0.81923211
0.034404621 0.28603861 0.82082325
0.034860671 0.28591481 0.82120264
0.035313245 0.28578958 0.82158142
0.036131017 0.28613514 0.82257724
0.03657952 0.28600731 0.82295382
0.037024926 0.28587672 0.82332844
-0.088001721 0.28512049 0.81554127
-0.08785674 0.28452462 0.81422359
-0.086704873 0.28229517 0.80807269
-0.086051546 0.28136104 0.80586791
-0.08562094 0.28065702 0.80458599
-0.083734117 0.27938876 0.79997241
-0.08315818 0.2788108 0.79877424
-0.081845351 0.27796981 0.79594731
-0.081224024 0.27746037 0.79477763
-0.080565944 0.27697715 0.79362583
-0.079361536 0.27646691 0.79180938
-0.078573398 0.27608326 0.79075354
-0.078284755 0.27576071 0.79036236
-0.077441655 0.27541539 0.78933352
-0.076530993 0.27509362 0.78836042
-0.075576104 0.27481428 0.78744173
-0.074593991 0.27456281 0.78656298
-0.074147217 0.27432746 0.7862457
-0.072629876 0.27407387 0.78484654
-0.072156973 0.2738516 0.78454179
-0.07116551 0.2736299 0.78370529
-0.069621548 0.273444 0.78247482
-0.068620406 0.2732439 0.78173006
-0.06811589 0.27306435 0.78143495
-0.066148773 0.27291539 0.7799384
-0.065149844 0.27277493 0.7793473
-0.064162485 0.27267951 0.77879596
-0.063614257 0.27256531 0.77857149
-0.06349846 0.27242321 0.77864009
-0.062481474 0.27236292 0.77814227
-0.061894022 0.27225381 0.77793831
-0.061296269 0.27214542 0.77774012
-0.060692556 0.27204269 0.77753997
-0.06006771 0.27194524 0.77736866
-0.059422858 0.27184907 0.77721411
-0.058772955 0.27175206 0.77706218
-0.058111843 0.27166533 0.77692872
-0.057450205 0.2715748 0.77678347
-0.056772981 0.2714974 0.77666128
-0.056410402 0.27124211 0.77680618
-0.055709302 0.27115732 0.77669436
-0.055003393 0.27107173 0.77658588
-0.054295186 0.27098319 0.77647245
-0.053579543 0.27089927 0.77636749
-0.052860126 0.27081525 0.77626687
-0.052133206 0.27074286 0.77618027
-0.051619489 0.27044272 0.77643788
-0.050868317 0.27037847 0.77636391
-0.050119232 0.27031323 0.7762984
-0.049186785 0.27047792 0.77587199
-0.04844093 0.27042872 0.77581936
-0.047689624 0.27038476 0.77577198
-0.046937957 0.27034101 0.77573401
-0.046065647 0.27052128 0.77535164
-0.045323607 0.27049357 0.77532196
-0.044577822 0.27047703 0.77530563
-0.043911766 0.27024004 0.77560508
-0.043228179 0.26999506 0.77596784
-0.042456836 0.27000102 0.77597755
-0.041684873 0.27001452 0.77598196
-0.040959083 0.26976883 0.77636915
-0.040147349 0.27005425 0.7760089
-0.039390735 0.269833 0.77638286
-0.038605433 0.26987693 0.77639788
-0.037834279 0.26990369 0.7764194
-0.03706184 0.2699323 0.77644926
-0.036298204 0.26995173 0.77646828
-0.035592433 0.27020767 0.77616668
-0.034838691 0.27024224 0.77619529
-0.034085263 0.27028695 0.77624363
-0.033254959 0.27011636 0.77662635
-0.032501958 0.27017426 0.77668571
-0.031637244 0.2700052 0.77702922
-0.030879425 0.27007142 0.77710646
-0.030120289 0.27014604 0.77718669
-0.029248701 0.26997426 0.77759695
-0.028627999 0.27030629 0.77736002
-0.028044833 0.2706216 0.77717412
-0.027314497 0.27071637 0.77727568
-0.026592715 0.27082285 0.77739644
-0.026246419 0.27133495 0.77693218
-0.025556738 0.27144098 0.77707207
-0.024873085 0.27155122 0.77721941
-0.024414161 0.27184021 0.77710038
-0.023750152 0.27194226 0.7772519
-0.022859052 0.27189535 0.77769822
-0.022197604 0.27201042 0.7778616
-0.021550125 0.27213374 0.77804732
-0.020631403 0.272102 0.77850598
-0.019979155 0.27222231 0.77868819
-0.019331353 0.27234656 0.77887464
-0.018395033 0.27232927 0.77934283
-0.017751999 0.27246729 0.77954119
-0.017114982 0.27259791 0.77974105
-0.016171608 0.27259997 0.78023791
-0.015542708 0.27274284 0.78045219
-0.014921393 0.27288061 0.78067094
-0.014315333 0.2730228 0.78090554
-0.013721296 0.27315977 0.78114724
-0.013138585 0.27329832 0.78140521
-0.012174614 0.27336735 0.78194708
-0.011595293 0.27350563 0.78220814
-0.011021705 0.27364108 0.78247756
-0.010060241 0.27373824 0.78304589
-0.009492307 0.27387846 0.783328
-0.0089206025 0.27400219 0.78360647
-0.0075285635 0.27408358 0.78446501
-0.006554442 0.27420661 0.78504795
-0.0055877944 0.27434137 0.78564715
-0.0042443583 0.27444977 0.78657895
-0.0036719188 0.27464235 0.78689086
-0.0031110682 0.27482346 0.78720915
-0.0017678742 0.27499658 0.78816789
-0.00083186117 0.27518359 0.78882879
-0.00027957431 0.27540123 0.7891835
0.0010259271 0.27560025 0.7901724
0.0015714854 0.27582824 0.79053628
0.0021053033 0.27604508 0.79090416
0.0030174069 0.27629533 0.79160571
0.003543684 0.27651736 0.79200572
0.0040618149 0.27672148 0.79242146
0.0049631428 0.27700263 0.79316968
0.0054666856 0.27719074 0.79360324
0.0059623215 0.27736309 0.7940439
0.0068651303 0.27765638 0.79480499
0.0073451055 0.27781421 0.79526716
0.0078249509 0.27795145 0.79572755
0.0087112281 0.27825373 0.79652202
0.0096030962 0.2785621 0.79731435
0.010065268 0.27867815 0.79779458
0.011374993 0.27920616 0.79892457
0.01184692 0.2793107 0.79939234
0.012736927 0.27964014 0.8001979
0.013618167 0.2799812 0.80102044
0.014092302 0.28005704 0.80148458
0.014571201 0.28011221 0.80193883
0.015889196 0.28074318 0.80309248
0.016367454 0.28078952 0.80354691
0.017277811 0.28113702 0.80433565
0.018168857 0.28149468 0.80516201
0.018663116 0.28151309 0.8055948
0.01957605 0.28187218 0.80639231
0.020481339 0.28224084 0.8072176
0.021374455 0.28261498 0.80806851
0.022272676 0.2829991 0.80892271
0.023533991 0.28381202 0.81030995
0.024040546 0.28378052 0.81070477
0.024916254 0.2841748 0.81161529
0.025418893 0.28412744 0.81200308
0.027066419 0.28547364 0.81400698
0.027568202 0.28540841 0.81438601
0.028465264 0.2858384 0.81531721
0.029346926 0.28623527 0.81624889
0.029829727 0.28612605 0.81661767
0.030308558 0.2860139 0.81698871
0.030788939 0.28590372 0.81735563
0.03163977 0.28627136 0.81831169
0.032108884 0.28615448 0.81868738
0.032570794 0.28603461 0.81906766
0.033762198 0.28686506 0.82066423
0.034220792 0.28674063 0.8210423
0.035036515 0.2870889 0.82204407
0.035494324 0.28696248 0.82241529
-0.087691128 0.28591755 0.81565881
-0.08749222 0.28544173 0.81441724
-0.086493522 0.2831924 0.80820614
-0.086160854 0.28247452 0.80686384
-0.085770719 0.28175071 0.80555224
-0.08365763 0.28019872 0.80002379
-0.083106495 0.27962106 0.79881263
-0.081794545 0.27875715 0.79598367
-0.08119677 0.27823633 0.79479665
-0.080552794 0.27775061 0.79363638
-0.079381593 0.27721226 0.79179323
-0.07913316 0.27688617 0.79138768
-0.078362957 0.27648398 0.79029536
-0.077536173 0.27612281 0.7892496
-0.076673925 0.27576339 0.7882303
-0.075729333 0.27548075 0.78729582
-0.074765705 0.27520123 0.78639132
-0.074343555 0.27494782 0.78604633
-0.072837338 0.27466941 0.78462046
-0.07238701 0.27443314 0.78428423
-0.071385287 0.27420655 0.78344619
-0.069320142 0.27396646 0.78175348
-0.068841793 0.27378467 0.78143692
-0.066845998 0.27355781 0.77992201
-0.065846838 0.27338433 0.77930671
-0.064873658 0.27326587 0.7787199
-0.063872211 0.27315122 0.77819824
-0.0633514 0.27307591 0.77795857
-0.062790483 0.27296171 0.77774477
-0.062226612 0.27286038 0.7775262
-0.061641067 0.27276397 0.77733403
-0.061044663 0.27267069 0.77713984
-0.060441017 0.27257478 0.77696306
-0.059822179 0.27248892 0.77678883
-0.05810811 0.27262416 0.77596486
-0.058557473 0.27231073 0.7764433
-0.057905622 0.2722263 0.77629757
-0.057243899 0.27214715 0.77616298
-0.056574225 0.27207759 0.77604371
-0.055908177 0.27199256 0.77590102
-0.055232294 0.27191895 0.77576995
-0.054553457 0.2718417 0.77563864
-0.053870011 0.27175969 0.7755028
-0.053436637 0.27150726 0.77563494
-0.052723385 0.27143005 0.77552813
-0.052006267 0.27134794 0.77542126
-0.051280499 0.27128559 0.77533585
-0.050548982 0.2712273 0.77526188
-0.049817041 0.27116045 0.77518064
-0.049081795 0.2711077 0.77510995
-0.0483413 0.27105233 0.77504325
-0.046897393 0.27181861 0.77367514
-0.046218675 0.27178678 0.77361351
-0.045540217 0.27176839 0.77355438
-0.044858593 0.27176973 0.77349991
-0.044510655 0.27107769 0.77454305
-0.043845076 0.27086303 0.77482188
-0.043092985 0.27085367 0.77481204
-0.042389572 0.27064347 0.77509767
-0.041625105 0.27064416 0.77509594
-0.040860247 0.270648 0.77509385
-0.040097013 0.27066132 0.77512097
-0.039337348 0.27068484 0.77515602
-0.038561545 0.27049664 0.77552283
-0.037795916 0.27051994 0.77554607
-0.037033807 0.27054369 0.77558196
-0.036269229 0.27057067 0.77561349
-0.035507537 0.27059993 0.77564126
-0.034817915 0.27087456 0.77538967
-0.033996649 0.27068114 0.77572984
-0.033248037 0.27073267 0.77579343
-0.032394115 0.27056512 0.77616608
-0.031520177 0.27039376 0.77650696
-0.030762414 0.2704615 0.77658498
-0.030001242 0.27053967 0.77666354
-0.02924639 0.27062801 0.77676129
-0.028495373 0.27073127 0.77685869
-0.027914042 0.2710456 0.77670032
-0.027180541 0.27115408 0.77681917
-0.026635025 0.27147442 0.77666336
-0.026120415 0.27177697 0.77652711
-0.025429957 0.27188599 0.77667695
-0.024959331 0.27217025 0.77657592
-0.024752226 0.2725749 0.77627486
-0.024104265 0.27267063 0.77643603
-0.023473522 0.27277911 0.77661175
-0.022856906 0.27287745 0.77680004
-0.022246942 0.27297086 0.77699548
-0.021347107 0.27298051 0.77742606
-0.020730043 0.27308452 0.77762431
-0.020127196 0.27317682 0.77782804
-0.018554933 0.27297211 0.77875459
-0.017924221 0.27310118 0.77896351
-0.017300967 0.2732259 0.77917582
-0.01635267 0.27324781 0.77965736
-0.015741011 0.27338523 0.77988857
-0.015135053 0.27352062 0.78012371
-0.014539005 0.27365473 0.78036636
-0.013957419 0.27377984 0.78061873
-0.013390713 0.27391043 0.78088611
-0.012434223 0.27399126 0.78142554
-0.011871541 0.27412108 0.78170156
-0.010906055 0.27422273 0.78226233
-0.0099459346 0.27434102 0.78284299
-0.0093851723 0.27448601 0.783135
-0.0088195959 0.27460629 0.78341883
-0.0074382639 0.27473381 0.78430694
-0.0064626816 0.27486339 0.78489077
-0.0059018778 0.27501971 0.78519696
-0.0045439592 0.27517086 0.7861256
-0.0035935799 0.27534649 0.78676891
-0.003038839 0.27552956 0.78709519
-0.0017074405 0.27572587 0.7880832
-0.0011601438 0.27592841 0.78842711
-0.0002272908 0.2761507 0.7891199
0.00069054833 0.27637523 0.78980941
0.0016077677 0.27661109 0.79050851
0.0021322728 0.27682248 0.7908901
0.0026529608 0.27702469 0.79128277
0.0035632146 0.27729306 0.79200888
0.0040727267 0.27749616 0.79243177
0.0045665461 0.27768096 0.79286563
0.0054571228 0.27797836 0.79364634
0.0059453747 0.27814457 0.79409194
0.0068383408 0.27844054 0.7948671
0.0073127113 0.2785936 0.7953344
0.0077858791 0.27872205 0.79579616
0.0086674867 0.27902973 0.79660136
0.0095452331 0.27934664 0.79741967
0.0099999718 0.27945432 0.79790395
0.01130519 0.27999842 0.79905909
0.011764832 0.28009686 0.79953486
0.012651001 0.28042746 0.8003512
0.013527805 0.28076917 0.80118316
0.014001455 0.280835 0.80163944
0.014471442 0.28088281 0.80209881
0.01576251 0.28152889 0.80330968
0.016255042 0.2815617 0.80373412
0.016751854 0.28157914 0.80415142
0.018037306 0.28226849 0.80538428
0.018539388 0.282276 0.80579633
0.019045353 0.28227052 0.80619991
0.020324614 0.2830022 0.80747157
0.021213317 0.28337365 0.80832624
0.021722652 0.28335074 0.80871636
0.023368757 0.28456584 0.81056935
0.02387799 0.28452972 0.81095189
0.024751557 0.28491759 0.81186348
0.025255291 0.28486472 0.81224328
0.02691724 0.28624466 0.81423974
0.027417842 0.28616107 0.81460541
0.028307121 0.2865667 0.81553024
0.029179262 0.28694898 0.81646222
0.029663989 0.2868374 0.81682825
0.030142281 0.28672454 0.81719899
0.030995129 0.28709489 0.81815261
0.031462993 0.28697652 0.81853068
0.031929933 0.28685763 0.81890649
0.033122431 0.28769457 0.82050228
0.033580005 0.28756768 0.82088244
0.034037285 0.28744054 0.8212592
-0.087553762 0.28659397 0.81567848
-0.087286279 0.28619573 0.81447321
-0.086257793 0.28408301 0.80835187
-0.085933022 0.28339621 0.80701041
-0.085575074 0.28268141 0.80567807
-0.084196843 0.28141892 0.80180651
-0.083355524 0.28062373 0.79971594
-0.081711978 0.27956107 0.79604292
-0.081131004 0.27903527 0.79484439
-0.080522858 0.27853405 0.79365844
-0.080739237 0.27823997 0.79399604
-0.079639733 0.27772015 0.79207635
-0.078903511 0.27729106 0.79093492
-0.077621877 0.27684137 0.78917217
-0.07676252 0.27649179 0.78815305
-0.075854026 0.27617046 0.78717607
-0.074920803 0.27586079 0.78623778
-0.074515425 0.27560064 0.7858721
-0.073547378 0.27531511 0.784958
-0.072588749 0.27504697 0.78405023
-0.071601979 0.27480283 0.78319192
-0.069525458 0.27453476 0.78149307
-0.068533868 0.27431732 0.78074008
-0.066003673 0.27397096 0.77900529
-0.065034956 0.27383032 0.77842891
-0.064090848 0.27371901 0.77786887
-0.06314566 0.27360773 0.77736866
-0.062646449 0.27354795 0.77713001
-0.062116362 0.27346507 0.77691853
-0.06155736 0.27337888 0.77672708
-0.060986433 0.2733117 0.77653533
-0.060393494 0.27321866 0.77636147
-0.059797667 0.27315035 0.77618647
-0.059182387 0.27308449 0.77603656
-0.058182672 0.27305892 0.77572769
-0.057585947 0.27299744 0.77555215
-0.056962349 0.27292988 0.77542472
-0.056034278 0.27291286 0.77502191
-0.055417135 0.27285451 0.7748751
-0.05481213 0.27280203 0.77473021
-0.054190386 0.27274561 0.77458602
-0.053560726 0.27267805 0.77445561
-0.052920803 0.27263653 0.77432811
-0.052269731 0.27258617 0.774198
-0.051611144 0.27253905 0.77410221
-0.051162411 0.27239609 0.77421296
-0.050486825 0.27235162 0.77411628
-0.049807522 0.27230275 0.77400672
-0.049127523 0.27225274 0.77390546
-0.048443478 0.27220929 0.77380764
-0.04760237 0.2722753 0.77348411
-0.046923384 0.2722435 0.77339238
-0.046239741 0.27220863 0.77333486
-0.045447927 0.27230984 0.77302212
-0.044872489 0.2721718 0.77320826
-0.044185463 0.27216679 0.77315503
-0.0435641 0.27201799 0.77335864
-0.042915132 0.2718333 0.77356559
-0.042194568 0.2718308 0.77355999
-0.041472867 0.2718302 0.77355754
-0.040773455 0.27166927 0.77381968
-0.040041007 0.27168497 0.77384108
-0.039319038 0.27189717 0.77365357
-0.038582269 0.27174571 0.77392709
-0.037824478 0.27157542 0.77420205
-0.037129462 0.27180958 0.77401781
-0.036406655 0.27184999 0.77407628
-0.035685372 0.27188993 0.7741347
-0.034886256 0.27172673 0.77439576
-0.034154821 0.27176869 0.77444845
-0.033427425 0.27181554 0.77451211
-0.032595865 0.27166146 0.77481467
-0.031742867 0.27150789 0.77511704
-0.031005858 0.27158383 0.77521503
-0.030152492 0.27143815 0.77563399
-0.029412847 0.27152202 0.77573442
-0.02867608 0.27162468 0.77584445
-0.028105862 0.27193996 0.77568889
-0.027394135 0.27204376 0.77582955
-0.02668882 0.27213448 0.77596384
-0.026196411 0.27241901 0.7758804
-0.025730571 0.27268273 0.77582043
-0.025292158 0.27292272 0.77577293
-0.024640724 0.27302757 0.77594656
-0.023999833 0.27313015 0.77613175
-0.023369476 0.27322978 0.77631205
-0.022753654 0.27333125 0.77651566
-0.022140354 0.27343723 0.77672088
-0.021230729 0.2734549 0.77713305
-0.02062162 0.27355585 0.77734596
-0.02001057 0.2736592 0.77755111
-0.019066742 0.27369633 0.77798146
-0.018453119 0.27380821 0.77819085
-0.017505063 0.27384305 0.77864814
-0.016901558 0.27396399 0.7788763
-0.015958278 0.27400541 0.77936274
-0.015366889 0.27413249 0.77960515
-0.01478669 0.27426314 0.77986282
-0.014215416 0.2743856 0.78012562
-0.013272411 0.27447662 0.78065783
-0.01271027 0.27461427 0.78093952
-0.011761286 0.27471557 0.78149796
-0.010800371 0.2748287 0.78206551
-0.0098417159 0.27495956 0.78265846
-0.0092836395 0.27509543 0.78295457
-0.0087281661 0.27522418 0.78325391
-0.0077674603 0.27538341 0.78386319
-0.0067960364 0.27553526 0.78446507
-0.0058328384 0.27569878 0.7850796
-0.0044750236 0.27587792 0.78601801
-0.0039247917 0.27605438 0.7863484
-0.0029834823 0.27625209 0.78701431
-0.002046302 0.27646333 0.78768843
-0.0011175155 0.2766802 0.78837699
-0.00059149764 0.27687499 0.78875107
0.00032612076 0.27711415 0.78946573
0.0012327144 0.27736568 0.79018521
0.0017494244 0.27755913 0.79057693
0.0022546067 0.27773687 0.79097998
0.0031571959 0.27800548 0.791722
0.0036542667 0.27817735 0.79214722
0.0045455392 0.27846828 0.79292077
0.0050289957 0.27862734 0.79336882
0.0055044033 0.27876806 0.79381806
0.0063873557 0.27906704 0.79461497
0.0072605289 0.27937678 0.79543078
0.0077220784 0.27949932 0.79590195
0.0090051787 0.28002197 0.79708701
0.0094683236 0.28013283 0.79755235
0.010332885 0.28046229 0.79839557
0.011608794 0.2810376 0.79960942
0.012071354 0.28113875 0.80007827
0.012534558 0.28121889 0.80054587
0.013410482 0.28155944 0.80138212
0.013880685 0.28161433 0.80183572
0.014345681 0.28165093 0.80229408
0.015234462 0.28198713 0.80311769
0.01612631 0.28232992 0.80393994
0.016616503 0.28233778 0.80436128
0.017499838 0.2826826 0.80519992
0.018394949 0.28303379 0.80602503
0.018890003 0.28301823 0.80643952
0.020166133 0.28375447 0.80771881
0.020670248 0.28372741 0.80811346
0.021557938 0.28409138 0.80896538
0.023200708 0.28531581 0.81082696
0.023707936 0.28527066 0.81120616
0.024584888 0.28566098 0.81211144
0.025091151 0.28560081 0.81248093
0.026767349 0.28699172 0.814457
0.027265133 0.28689227 0.81481487
0.028144866 0.287283 0.81574047
0.029009365 0.28766182 0.81667835
0.029489566 0.28754631 0.81704772
0.029967269 0.28743124 0.8174172
0.030815512 0.28780028 0.81837559
0.031280711 0.28767893 0.81875491
0.031747058 0.28755733 0.81912887
-0.087511428 0.28723958 0.8156684
-0.087213285 0.28723034 0.81550282
-0.086929277 0.28680399 0.81427675
-0.086126357 0.28487372 0.80902433
-0.085866667 0.28409436 0.80761081
-0.084689192 0.28271019 0.80364102
-0.084224381 0.28199941 0.80235493
-0.082351081 0.28072557 0.79773456
-0.081818357 0.2801396 0.79648566
-0.081267126 0.27959207 0.79525137
-0.081083812 0.27914396 0.79480398
-0.079622917 0.27853003 0.79209
-0.079391286 0.27814046 0.79163879
-0.078178018 0.27766383 0.78978974
-0.077385098 0.27725771 0.78868562
-0.076516338 0.27689227 0.78765446
-0.07557705 0.2765857 0.78668481
-0.07517761 0.27629602 0.78629887
-0.073735438 0.2759631 0.78476334
-0.072759658 0.27570033 0.78385454
-0.071793675 0.27542296 0.78296137
-0.069713578 0.27512851 0.78125113
-0.068732619 0.27489302 0.78047341
-0.066173613 0.27450001 0.77874577
-0.065201864 0.27434626 0.77815658
-0.06423948 0.27420542 0.77759624
-0.06327574 0.27407885 0.77709872
-0.062775031 0.27401489 0.77685887
-0.062246691 0.27393025 0.77663219
-0.061275158 0.27385685 0.77623504
-0.060711611 0.27378923 0.77604848
-0.060121413 0.27371418 0.77587819
-0.0595189 0.27364898 0.77570826
-0.058921013 0.27358893 0.77554429
-0.05832018 0.27351841 0.77538127
-0.057710346 0.2734524 0.77522242
-0.05708373 0.27338457 0.77507126
-0.056115903 0.27336803 0.77479088
-0.055493455 0.27330729 0.77462369
-0.054885752 0.27325368 0.77447081
-0.053970877 0.27324787 0.77420872
-0.053344298 0.27320588 0.77406406
-0.052711803 0.27315873 0.77390623
-0.052318428 0.27305204 0.77397227
-0.051662721 0.273002 0.7738412
-0.050995886 0.2729564 0.77373016
-0.050553571 0.27281678 0.7737574
-0.049869899 0.27276656 0.77364588
-0.048990794 0.27281973 0.77339423
-0.04831231 0.27277714 0.7732935
-0.047631849 0.27274102 0.77320564
-0.046814796 0.27280009 0.77292413
-0.046138916 0.27277428 0.77285343
-0.045463216 0.27274498 0.7727769
-0.044785928 0.27271673 0.77273011
-0.044106938 0.27269486 0.77267981
-0.043570727 0.27246904 0.7730087
-0.042859413 0.27245688 0.77299017
-0.042190477 0.2722995 0.77319181
-0.04146307 0.27229506 0.77318507
-0.040736996 0.27230513 0.77320045
-0.04001243 0.27232122 0.77322525
-0.039290302 0.27235386 0.77327758
-0.038568486 0.27238089 0.77331948
-0.037846703 0.27240291 0.7733528
-0.037077717 0.27225319 0.77358818
-0.036349207 0.27229363 0.7736482
-0.035623007 0.27233532 0.77370912
-0.034897428 0.2723701 0.77376318
-0.03417455 0.27241373 0.77382654
-0.033346023 0.27226079 0.77407271
-0.032617789 0.27232221 0.77415282
-0.031893827 0.27237976 0.77423549
-0.031175379 0.27244937 0.77433658
-0.030306498 0.27233395 0.77463835
-0.029589511 0.27241454 0.77475828
-0.028871873 0.27250603 0.77488619
-0.028164253 0.27260318 0.77503073
-0.027462954 0.27269986 0.77517825
-0.026970554 0.27296203 0.77513194
-0.02629015 0.2730622 0.77529204
-0.025615834 0.27316502 0.77545881
-0.025184508 0.27340379 0.77544481
-0.024538795 0.27350855 0.77563614
-0.023901869 0.27360913 0.77583116
-0.023268303 0.27370667 0.77601743
-0.022643747 0.27380958 0.77622086
-0.022024615 0.27391696 0.77642798
-0.021110652 0.2739509 0.77683622
-0.020496268 0.27406174 0.77705622
-0.019888548 0.27417475 0.77728045
-0.018950123 0.27422217 0.77771068
-0.018337695 0.27434036 0.77793115
-0.017385287 0.27438298 0.77838242
-0.016434642 0.2744357 0.77886289
-0.015836257 0.27457225 0.7791152
-0.015246387 0.27470195 0.77936733
-0.014300863 0.27478644 0.77989221
-0.013726289 0.2749283 0.78016782
-0.013159843 0.27506781 0.78045112
-0.01221317 0.27518463 0.78101587
-0.011257479 0.27530697 0.7815901
-0.010701806 0.275453 0.78188992
-0.0097484468 0.27559766 0.78249562
-0.0091978125 0.27573964 0.78280222
-0.0086525567 0.2758753 0.78311747
-0.0072852913 0.2760694 0.78404456
-0.00673398 0.27621651 0.78435934
-0.005774579 0.27639097 0.78498167
-0.0044238786 0.27660298 0.78594369
-0.0038792458 0.27677777 0.78628027
-0.0029414645 0.27699256 0.78695309
-0.002014477 0.27721447 0.78765023
-0.001094521 0.2774511 0.78835934
-0.00057648012 0.27764186 0.78874362
0.00072784978 0.2779496 0.78980601
0.0012342938 0.27815631 0.7902059
0.0017365705 0.27834421 0.79061359
0.0026359169 0.27861768 0.79135567
0.003128205 0.27880296 0.79178792
0.0036168704 0.2789669 0.79222071
0.0045044422 0.27926561 0.79300487
0.0049794307 0.2794134 0.79345679
0.0054479335 0.27954465 0.79391134
0.0067254691 0.28003228 0.79508716
0.0071908827 0.28016469 0.79555196
0.0076468522 0.28027764 0.79602242
0.0089141261 0.28082064 0.7972458
0.009772487 0.28115588 0.79809904
0.01022716 0.28125522 0.79857135
0.011489833 0.28185028 0.79982024
0.011952371 0.28193516 0.80027986
0.012810871 0.28228655 0.80114532
0.013673233 0.28264666 0.80201012
0.014140079 0.28269926 0.80246389
0.014616849 0.28273198 0.80289948
0.015493383 0.28308105 0.80374593
0.015978463 0.28309199 0.80416924
0.016459968 0.28308719 0.80459636
0.017346758 0.28343341 0.80543256
0.017849619 0.2834143 0.8058297
0.018736517 0.2837584 0.80666971
0.019629883 0.2841101 0.80749828
0.020510308 0.28446439 0.80835092
0.021387879 0.28482327 0.80921561
0.023027088 0.28605825 0.81108576
0.023540558 0.28600627 0.8114506
0.024420759 0.2864005 0.81235135
0.025327312 0.28681311 0.81322533
0.0266141 0.28771576 0.81466335
0.027487598 0.28810337 0.81559002
0.028349524 0.28848425 0.816535
-0.086667903 0.28759015 0.81438553
-0.085960291 0.28615943 0.81021726
-0.085766926 0.28536013 0.80874014
-0.084733248 0.28386781 0.80467123
-0.084026352 0.28295681 0.80249411
-0.082195207 0.28159252 0.79784697
-0.081704549 0.28100473 0.7965731
-0.081535712 0.28057188 0.79611784
-0.081007801 0.28001758 0.79486352
-0.080026336 0.27944124 0.79286355
-0.079371117 0.27896982 0.7916519
-0.078200795 0.27843139 0.78976381
-0.077437319 0.27802056 0.78863931
-0.07712613 0.27768677 0.78819436
-0.075682238 0.27730823 0.78659153
-0.07530462 0.27701819 0.78617805
-0.073890872 0.27664918 0.78459352
-0.072918266 0.27636549 0.78367293
-0.071957231 0.27608117 0.7827639
-0.069890194 0.27573878 0.78102249
-0.068910703 0.2754938 0.78023207
-0.066352449 0.27505672 0.77847946
-0.065364674 0.27488077 0.77788925
-0.064386509 0.27471903 0.77732795
-0.06341856 0.27458116 0.7768333
-0.062464569 0.27446568 0.77639705
-0.061946005 0.27441087 0.7761656
-0.06141286 0.27434671 0.77594048
-0.06085125 0.27428213 0.77573109
-0.06025913 0.27420914 0.77555054
-0.059661582 0.27414182 0.77537042
-0.059060112 0.27406582 0.77520096
-0.058061663 0.27400473 0.77492505
-0.057456795 0.2739552 0.77476186
-0.056839373 0.27389801 0.77462411
-0.055871803 0.27385944 0.77437145
-0.054971002 0.27385303 0.77404749
-0.054362103 0.27380049 0.77390915
-0.053749193 0.27374333 0.77379042
-0.053134549 0.2737079 0.77362424
-0.05250892 0.27367154 0.77348346
-0.051878836 0.27362403 0.77334988
-0.051246993 0.27357697 0.77322143
-0.050835922 0.27349037 0.77325159
-0.050172362 0.2734549 0.77316129
-0.049509313 0.27341506 0.77304548
-0.048848797 0.27337861 0.77292985
-0.04817754 0.2733407 0.77284211
-0.047355782 0.27337006 0.7725876
-0.046692804 0.27335063 0.77249837
-0.045915127 0.27337557 0.77227414
-0.045264319 0.27336165 0.7721824
-0.044614349 0.27334791 0.77212489
-0.044036113 0.27327007 0.77225053
-0.0434261 0.27315322 0.7723822
-0.042802256 0.27306336 0.77247781
-0.042098388 0.27306098 0.77246654
-0.041396756 0.2730667 0.77246577
-0.040694803 0.27308723 0.77249092
-0.039994288 0.27310753 0.77252114
-0.039297942 0.27313563 0.77257138
-0.038595084 0.27315959 0.77261388
-0.037895013 0.27319026 0.77266943
-0.037194002 0.27321392 0.77272409
-0.036494482 0.27324069 0.77278483
-0.03579887 0.27327022 0.77284998
-0.035100088 0.2732996 0.77290249
-0.034401514 0.27334672 0.77296472
-0.033707652 0.27339536 0.77303177
-0.033019498 0.27343863 0.77311093
-0.032339279 0.27348241 0.77320367
-0.031666495 0.2735244 0.77330697
-0.030835805 0.2734656 0.77357179
-0.030155621 0.27353412 0.77369499
-0.029483043 0.27360106 0.77382058
-0.028626051 0.27355227 0.77411765
-0.027956879 0.27364388 0.77427703
-0.027289059 0.27373329 0.77444482
-0.026631916 0.27381468 0.7746104
-0.025732905 0.27379382 0.77492589
-0.025073897 0.27389762 0.77510923
-0.024423592 0.27400377 0.7753005
-0.023785034 0.27411085 0.77550042
-0.02315329 0.27421394 0.77571028
-0.022533353 0.27431914 0.7759248
-0.021915229 0.27442193 0.77614665
-0.021309294 0.27452835 0.77637082
-0.020708995 0.27462849 0.77659822
-0.019772416 0.27469435 0.77700835
-0.018828155 0.27476159 0.77744126
-0.018214945 0.27487633 0.77766991
-0.017614473 0.27498361 0.77790523
-0.016671509 0.27507693 0.77838415
-0.015720496 0.27515417 0.77887851
-0.015137556 0.27528971 0.7791478
-0.014189352 0.27538568 0.77967739
-0.013239679 0.27550039 0.7802338
-0.012671996 0.27565461 0.78053129
-0.01172297 0.27578992 0.78111947
-0.011165923 0.27594852 0.78142875
-0.010617213 0.27610007 0.78174162
-0.0092627164 0.27625969 0.78265643
-0.0087125292 0.27642059 0.78297436
-0.0081658643 0.27657112 0.78329426
-0.0072171721 0.27675411 0.78393143
-0.0062712878 0.27694044 0.78457463
-0.0057301698 0.27709821 0.78490824
-0.004380621 0.27734372 0.78588384
-0.0038501287 0.27751538 0.78623861
-0.0029233531 0.27774107 0.78693295
-0.0016020722 0.27803338 0.78797656
-0.0010863629 0.27823603 0.78836435
-0.00017771909 0.27848566 0.78910565
0.00071722479 0.27875975 0.78985012
0.001215518 0.2789585 0.79026175
0.0017090461 0.2791397 0.79067647
0.0025958116 0.27943248 0.79144853
0.0030799001 0.27960646 0.79188621
0.0035566946 0.27976322 0.79232901
0.0044331206 0.28007215 0.79313397
0.0049021463 0.28020674 0.79358703
0.0057699215 0.28052229 0.79441184
0.0066328617 0.28084299 0.79524934
0.0070921993 0.28095964 0.79571372
0.0079404423 0.28129083 0.79658115
0.0091932928 0.28186229 0.79783946
0.009647212 0.28196365 0.79830825
0.010498597 0.28230932 0.79918164
0.011349267 0.28266034 0.80005485
0.012202056 0.28301981 0.80093217
0.012669697 0.28308186 0.80137664
0.013524543 0.28344053 0.80225545
0.013999735 0.28347728 0.80268675
0.014860214 0.28383228 0.80355805
0.015346344 0.2838465 0.80397344
0.015828179 0.28384683 0.80439484
0.016317898 0.28383398 0.8048051
0.017201494 0.2841785 0.80564827
0.018082844 0.28452691 0.80649853
0.01858313 0.28449434 0.80689341
0.019839471 0.2852385 0.8082121
0.020717459 0.28560248 0.80907798
0.021223728 0.28554904 0.80945069
0.022864284 0.28680095 0.81132698
0.023375239 0.28673673 0.81168717
0.024277529 0.28713799 0.81255502
0.025179671 0.28753948 0.81342763
0.026829414 0.28892347 0.81543988
0.027318044 0.28881288 0.81580865
-0.085674427 0.28745511 0.81147051
-0.085620575 0.28665066 0.80991226
-0.084721476 0.28506321 0.80573457
-0.084106877 0.28412661 0.8035264
-0.082347609 0.28267089 0.79881442
-0.081896596 0.28205711 0.79751325
-0.081404448 0.28145972 0.79622036
-0.081606798 0.28110421 0.79655522
-0.080738917 0.28045303 0.79446286
-0.079760119 0.27990532 0.79244506
-0.078656673 0.27932665 0.79048109
-0.077941664 0.27890304 0.78930289
-0.077663139 0.27851593 0.78881609
-0.075767696 0.27806094 0.78650951
-0.075404964 0.2777667 0.7860778
-0.07347618 0.27729502 0.78391993
-0.073063821 0.2770569 0.78350937
-0.072102278 0.27675384 0.78258622
-0.070046172 0.27637321 0.78082085
-0.069073856 0.27611405 0.78001058
-0.066524513 0.2756342 0.77822572
-0.065524526 0.27544507 0.77763498
-0.064546831 0.27525628 0.77707148
-0.063072704 0.27501971 0.77639872
-0.062577866 0.2749688 0.77614188
-0.062056307 0.27491224 0.77589923
-0.061539654 0.27485827 0.77564442
-0.06098409 0.27479479 0.77542639
-0.060398586 0.27472427 0.77523065
-0.05979773 0.27464792 0.77504623
-0.059195336 0.27456236 0.77487111
-0.058193937 0.27450824 0.77458763
-0.057578556 0.2744444 0.77442425
-0.056959346 0.2743884 0.774266
-0.055991333 0.27434584 0.77402878
-0.055044692 0.27430969 0.77379924
-0.054135859 0.27429268 0.77348065
-0.053529959 0.27424225 0.77333748
-0.052915856 0.27419269 0.77321368
-0.052582588 0.27413374 0.77317899
-0.051946253 0.27409577 0.77303737
-0.051305793 0.27405798 0.77291858
-0.050659195 0.27401933 0.77281469
-0.050008256 0.273981 0.77271438
-0.049356923 0.27394828 0.77262807
-0.048694577 0.27390718 0.77254266
-0.048040964 0.27387035 0.7724399
-0.047381856 0.27384764 0.77234185
-0.046579719 0.27386367 0.77216351
-0.045921125 0.27383173 0.77208978
-0.045277022 0.27380899 0.77202141
-0.04461829 0.2738001 0.77195036
-0.04396233 0.27379456 0.77189738
-0.043362465 0.27373087 0.77197003
-0.042744365 0.2736412 0.77206141
-0.042053029 0.2736395 0.77205306
-0.041387185 0.27356485 0.77215618
-0.040677663 0.27366814 0.77209336
-0.039983176 0.27368006 0.77210462
-0.039287586 0.27370366 0.77212673
-0.038596276 0.27372989 0.77216482
-0.0379069 0.27376929 0.77221072
-0.03721625 0.27380192 0.77226698
-0.036523748 0.27383363 0.77232003
-0.035832513 0.2738575 0.77237117
-0.035134569 0.27389103 0.77243692
-0.034446102 0.2739208 0.77250385
-0.033766285 0.27396378 0.77258539
-0.03308747 0.27400091 0.77268285
-0.032415088 0.27404436 0.77276999
-0.031752206 0.27408808 0.77287763
-0.031086978 0.2741476 0.77298588
-0.0302525 0.2741231 0.77323103
-0.029587746 0.27419147 0.77337313
-0.028729877 0.27416211 0.77363062
-0.0280744 0.27424383 0.77380723
-0.027190998 0.27423364 0.774104
-0.026532518 0.27432469 0.77428389
-0.025872326 0.27441514 0.77445894
-0.025229108 0.27451074 0.77465284
-0.024591235 0.27461022 0.77485669
-0.023959009 0.274708 0.77506369
-0.023340043 0.27479732 0.77527422
-0.022728099 0.27489111 0.77550381
-0.022129359 0.27497455 0.77573383
-0.021195507 0.27505019 0.77609545
-0.020595107 0.27515587 0.77633786
-0.019662127 0.27523291 0.77674937
-0.018712409 0.27532038 0.77718717
-0.0181052 0.27543196 0.77742654
-0.017506987 0.27554131 0.77767229
-0.016560005 0.27565002 0.77815229
-0.015615325 0.27575332 0.7786634
-0.015036731 0.27589113 0.77894551
-0.014086914 0.27600357 0.77948183
-0.013142986 0.27613744 0.78005505
-0.012580638 0.27629507 0.78036606
-0.011635696 0.27644563 0.78096622
-0.011086381 0.27660668 0.78128862
-0.010139799 0.27677211 0.78190964
-0.009193249 0.27694795 0.78254128
-0.0086512184 0.27711058 0.78287256
-0.008116208 0.27726629 0.78321046
-0.0071716905 0.27746078 0.78385705
-0.0066380594 0.27760825 0.7841956
-0.0061088419 0.2777442 0.78453863
-0.0047643967 0.27803782 0.78553385
-0.0042447336 0.27819157 0.78589678
-0.0033219666 0.27842912 0.7865991
-0.0020021163 0.27875909 0.78765768
-0.0010983096 0.27902731 0.78839898
-0.00060128036 0.27921024 0.78880984
0.00068756146 0.27958897 0.78992587
0.0011733893 0.27977428 0.79034793
0.0016597448 0.27994791 0.79077208
0.002537854 0.28024858 0.7915653
0.0030094732 0.28041667 0.79201674
0.0034778698 0.28056234 0.79246444
0.0043453202 0.28087571 0.79328555
0.0052016354 0.28120086 0.79412794
0.005661027 0.28132442 0.79459035
0.0069090961 0.28187355 0.79584485
0.00736241 0.28198904 0.79631382
0.0082071917 0.28233409 0.79719496
0.0094414204 0.28293821 0.79849648
0.00988968 0.28303629 0.79896891
0.010346369 0.28311247 0.79942483
0.011583094 0.28375724 0.80073833
0.012042047 0.28382349 0.80119121
0.012893754 0.28418663 0.8020739
0.013745004 0.28455848 0.80296284
0.014220225 0.2845861 0.80338699
0.014704689 0.28460136 0.80379784
0.015566306 0.28495985 0.80467147
0.016052527 0.28495681 0.80508316
0.016545359 0.28494179 0.80548334
0.017422622 0.28529418 0.80634147
0.017918479 0.28526166 0.80673742
0.018423378 0.28521934 0.80711931
0.019670011 0.28596643 0.8084572
0.020549728 0.28632897 0.80931902
0.021429941 0.2866967 0.81018651
0.023107374 0.28803015 0.81206429
0.023624092 0.28794947 0.81240535
0.024136778 0.28786057 0.81274545
0.025032084 0.28825599 0.81362307
-0.084868044 0.28657964 0.80776578
-0.084366508 0.28556412 0.80545473
-0.08376278 0.28460544 0.80325896
-0.082030609 0.28315604 0.7984978
-0.081913128 0.28269097 0.79801589
-0.081457786 0.28205785 0.79667366
-0.080620721 0.28139654 0.79456758
-0.079672419 0.28077549 0.7925204
-0.078606941 0.2801666 0.79052126
-0.077913165 0.27971897 0.78932583
-0.077653654 0.2793594 0.78882843
-0.075830728 0.27882889 0.78644741
-0.074984074 0.27845266 0.78538877
-0.07356213 0.27803195 0.78382772
-0.072653696 0.27768925 0.78285271
-0.072239876 0.27744725 0.78242356
-0.070189349 0.27702695 0.78063804
-0.069225781 0.27675119 0.77980345
-0.066125013 0.27611127 0.77773297
-0.065670155 0.27601558 0.77739865
-0.064702518 0.27582765 0.77681541
-0.063203298 0.27555338 0.77615064
-0.062689327 0.27550158 0.77588594
-0.061747238 0.27538678 0.77547282
-0.061220508 0.27533424 0.77523386
-0.060665339 0.27526695 0.77500719
-0.060100134 0.27520645 0.77480805
-0.059529167 0.2751483 0.77460414
-0.058927491 0.2750856 0.774427
-0.058320273 0.27503061 0.77425206
-0.057701055 0.27496949 0.7740891
-0.057079203 0.27490437 0.77392477
-0.055747587 0.27484813 0.77363038
-0.055140063 0.27480397 0.77348614
-0.054212529 0.27476946 0.77323359
-0.053611383 0.27471775 0.77306104
-0.053000927 0.27466968 0.77289915
-0.052385513 0.27462277 0.77277815
-0.051756129 0.27458674 0.77267855
-0.051127542 0.27455512 0.77255231
-0.050722916 0.27451596 0.77251202
-0.050069094 0.2744827 0.77240568
-0.049413718 0.27444488 0.7723189
-0.048750877 0.27440813 0.77225041
