# .PCD v0.7 - Point Cloud Data file format
VERSION 0.7
FIELDS x y z rgba
SIZE 4 4 4 4
TYPE F F F U
COUNT 1 1 1 1
WIDTH 1042
HEIGHT 1
VIEWPOINT 0 0 0 1 0 0 0
POINTS 1042
DATA ascii
-0.018244591 0.28603035 0.77900004 4284310621
-0.017509107 0.28603035 0.77900004 4284179035
-0.016773621 0.28603035 0.77900004 4284179036
-0.016079312 0.28676471 0.78100002 4284244828
-0.015341938 0.28676471 0.78100002 4284113243
-0.014623266 0.28713191 0.78200006 4283915609
-0.013902704 0.28749907 0.78300005 4283981402
-0.013163443 0.28749907 0.78300005 4283915609
-0.01244005 0.28786623 0.78400004 4283915609
-0.011714768 0.28823343 0.78500003 4284047195
-0.010973618 0.28823343 0.78500003 4284112988
-0.010232469 0.28823343 0.78500003 4284047195
-0.0095155006 0.28896779 0.78700006 4283981402
-0.0087724635 0.28896779 0.78700006 4283915609
-0.0080396272 0.28933495 0.78800005 4283849816
-0.0073049041 0.28970212 0.78900003 4283784023
-0.0065599782 0.28970212 0.78900003 4283784022
-0.005822422 0.29006931 0.79000002 4283784277
-0.0050829779 0.29043648 0.79100001 4283850070
-0.0043361634 0.29043648 0.79100001 4283850070
-0.003593887 0.29080367 0.79200006 4283850069
-0.0028461283 0.29080367 0.79200006 4283850069
-0.0021036686 0.291538 0.79400003 4283850069
-0.0013540221 0.291538 0.79400003 4283784276
-0.00060513645 0.29190519 0.79500002 4283718483
0.00014563744 0.29227239 0.79600006 4283718483
0.00089829962 0.29263952 0.79700005 4283718483
0.0016507788 0.29263952 0.79700005 4283718483
0.0024092887 0.29337388 0.79900002 4283784276
0.0031636562 0.29337388 0.79900002 4283850069
0.0039180238 0.29337388 0.79900002 4283915862
0.0046782391 0.29374108 0.80000001 4283784276
0.0054335506 0.29374108 0.80000001 4283586897
-0.078765541 0.29302236 0.79600006 4284573539
-0.078014001 0.29302236 0.79600006 4284573539
-0.077068344 0.2922861 0.79400003 4284507746
-0.076318696 0.2922861 0.79400003 4284507746
-0.075569049 0.2922861 0.79400003 4284442209
-0.074725173 0.29191801 0.79300004 4284442207
-0.073976472 0.29191801 0.79300004 4284508000
-0.073135428 0.29154986 0.79200006 4284508513
-0.072204866 0.29081362 0.79000002 4284442720
-0.071458995 0.29081362 0.79000002 4284377186
-0.070265576 0.28897303 0.78500003 4284508515
-0.0693473 0.28823683 0.78300005 4284640102
-0.068520419 0.28786868 0.78200006 4284903274
-0.067348711 0.28602809 0.77700001 4285100652
-0.066529378 0.28565997 0.77600002 4285100653
-0.065627143 0.28492373 0.77400005 4285166702
-0.064896382 0.28492373 0.77400005 4285363824
-0.064165615 0.28492373 0.77400005 4285363825
-0.063434854 0.28492373 0.77400005 4285363825
-0.062704086 0.28492373 0.77400005 4285298034
-0.061893258 0.28455564 0.77300006 4285232241
-0.061163437 0.28455564 0.77300006 4285298034
-0.060433619 0.28455564 0.77300006 4285232241
-0.059781034 0.28492373 0.77400005 4285232241
-0.059050269 0.28492373 0.77400005 4285363827
-0.058319505 0.28492373 0.77400005 4285495413
-0.057588741 0.28492373 0.77400005 4285495413
-0.056857977 0.28492373 0.77400005 4285429620
-0.056127213 0.28492373 0.77400005 4285298034
-0.055396449 0.28492373 0.77400005 4285363827
-0.054665685 0.28492373 0.77400005 4285495156
-0.053934921 0.28492373 0.77400005 4285561206
-0.053204156 0.28492373 0.77400005 4285495413
-0.052473392 0.28492373 0.77400005 4285494898
-0.051742628 0.28492373 0.77400005 4285494641
-0.051011864 0.28492373 0.77400005 4285363055
-0.050216138 0.28455564 0.77300006 4285297262
-0.049358282 0.28381938 0.77100003 4285297262
-0.048630349 0.28381938 0.77100003 4285494641
-0.04790242 0.28381938 0.77100003 4285560434
-0.047113303 0.28345126 0.77000004 4285428848
-0.046386316 0.28345126 0.77000004 4285428848
-0.045718625 0.28381938 0.77100003 4285363055
-0.044990692 0.28381938 0.77100003 4285428848
-0.044262763 0.28381938 0.77100003 4285494641
-0.04353483 0.28381938 0.77100003 4285494641
-0.042806897 0.28381938 0.77100003 4285428848
-0.042078968 0.28381938 0.77100003 4285560434
-0.041351035 0.28381938 0.77100003 4285692020
-0.040623102 0.28381938 0.77100003 4285626227
-0.039895173 0.28381938 0.77100003 4285494641
-0.03916724 0.28381938 0.77100003 4285626227
-0.038439307 0.28381938 0.77100003 4285955192
-0.037711378 0.28381938 0.77100003 4286086778
-0.036935478 0.28345126 0.77000004 4286086778
-0.036208492 0.28345126 0.77000004 4286020985
-0.035481505 0.28345126 0.77000004 4285955192
-0.034709379 0.28308314 0.76900005 4286086778
-0.033983335 0.28308314 0.76900005 4286218364
-0.033257291 0.28308314 0.76900005 4286152571
-0.03253125 0.28308314 0.76900005 4285955192
-0.031805206 0.28308314 0.76900005 4285889399
-0.031079162 0.28308314 0.76900005 4286284157
-0.030353121 0.28308314 0.76900005 4286218364
-0.029627077 0.28308314 0.76900005 4285889399
-0.028938618 0.28345126 0.77000004 4285823349
-0.028211631 0.28345126 0.77000004 4285691763
-0.027520336 0.28381938 0.77100003 4285625714
-0.026827155 0.2841875 0.77200001 4285494384
-0.026098279 0.2841875 0.77200001 4285099626
-0.025402265 0.28455564 0.77300006 4284704868
-0.02473628 0.28529185 0.77500004 4284573282
-0.024004571 0.28529185 0.77500004 4284376160
-0.023302894 0.28565997 0.77600002 4284244828
-0.022570241 0.28565997 0.77600002 4284310621
-0.021865731 0.28602809 0.77700001 4284376414
-0.021132134 0.28602809 0.77700001 4284442207
-0.020398539 0.28602809 0.77700001 4284376160
-0.019690251 0.28639624 0.77800006 4284376159
-0.018955709 0.28639624 0.77800006 4284376159
-0.018244591 0.28676432 0.77900004 4284310366
-0.017531581 0.28713244 0.78000003 4284178781
-0.016795153 0.28713244 0.78000003 4284244573
-0.0160999 0.28786868 0.78200006 4284244573
-0.015361583 0.28786868 0.78200006 4284112988
-0.014641966 0.28823683 0.78300005 4283850072
-0.01392046 0.28860492 0.78400004 4283850072
-0.013180255 0.28860492 0.78400004 4283849816
-0.01244005 0.28860492 0.78400004 4283915609
-0.011714768 0.28897303 0.78500003 4283981402
-0.010973618 0.28897303 0.78500003 4283981402
-0.010232469 0.28897303 0.78500003 4283849817
-0.0095155006 0.28970927 0.78700006 4283849816
-0.0087836096 0.29007742 0.78800005 4283915609
-0.0080396272 0.29007742 0.78800005 4283849816
-0.0072956453 0.29007742 0.78800005 4283718230
-0.0065682926 0.29081362 0.79000002 4283652437
-0.005822422 0.29081362 0.79000002 4283718484
-0.0050829779 0.29118174 0.79100001 4283784277
-0.0043416452 0.29154986 0.79200006 4283784277
-0.0035984246 0.29191801 0.79300004 4283718484
-0.0028497218 0.29191801 0.79300004 4283718483
-0.0021063183 0.29265422 0.79500002 4283784276
-0.0013557274 0.29265422 0.79500002 4283850069
-0.00060513645 0.29265422 0.79500002 4283850069
0.00014582041 0.29339045 0.79700005 4283850069
0.00089829962 0.29339045 0.79700005 4283784276
0.0016528501 0.2937586 0.79800004 4283784276
0.0024092887 0.29412669 0.79900002 4283784276
0.0031636562 0.29412669 0.79900002 4283784276
-0.07716541 0.29340327 0.79500002 4284507746
-0.076414816 0.29340327 0.79500002 4284508000
-0.075569049 0.2930342 0.79400003 4284573793
-0.074725173 0.29266515 0.79300004 4284573793
-0.073976472 0.29266515 0.79300004 4284508000
-0.073227771 0.29266515 0.79300004 4284508000
-0.072296269 0.29192701 0.79100001 4284508000
-0.071458995 0.29155797 0.79000002 4284508770
-0.070265576 0.28971267 0.78500003 4284508770
-0.0693473 0.28897455 0.78300005 4284640356
-0.068520419 0.28860548 0.78200006 4284903528
-0.067348711 0.28676018 0.77700001 4285166700
-0.066615112 0.28676018 0.77700001 4285100907
-0.06571193 0.28602207 0.77500004 4285100907
-0.064980224 0.28602207 0.77500004 4285298286
-0.064248517 0.28602207 0.77500004 4285298031
-0.063434854 0.285653 0.77400005 4285100653
-0.062704086 0.285653 0.77400005 4285100654
-0.062053394 0.28602207 0.77500004 4285232241
-0.061321687 0.28602207 0.77500004 4285232241
-0.06058998 0.28602207 0.77500004 4285232241
-0.059858274 0.28602207 0.77500004 4285429620
-0.059126563 0.28602207 0.77500004 4285561206
-0.058394857 0.28602207 0.77500004 4285495413
-0.057588741 0.285653 0.77400005 4285363827
-0.056857977 0.285653 0.77400005 4285297778
-0.056127213 0.285653 0.77400005 4285298034
-0.055396449 0.285653 0.77400005 4285428850
-0.054665685 0.285653 0.77400005 4285428850
-0.054004606 0.28602207 0.77500004 4285692022
-0.053272899 0.28602207 0.77500004 4285823608
-0.052541189 0.28602207 0.77500004 4285626227
-0.051809482 0.28602207 0.77500004 4285494641
-0.051011864 0.285653 0.77400005 4285494641
-0.050216138 0.28528395 0.77300006 4285428848
-0.049422305 0.28491488 0.77200001 4285363055
-0.048630349 0.28454581 0.77100003 4285494641
-0.04790242 0.28454581 0.77100003 4285560434
-0.047113303 0.28417677 0.77000004 4285428848
-0.046386316 0.28417677 0.77000004 4285363055
-0.045718625 0.28454581 0.77100003 4285297262
-0.044990692 0.28454581 0.77100003 4285363055
-0.044262763 0.28454581 0.77100003 4285494641
-0.043591298 0.28491488 0.77200001 4285494641
-0.042806897 0.28454581 0.77100003 4285428848
-0.042078968 0.28454581 0.77100003 4285494641
-0.041351035 0.28454581 0.77100003 4285560434
-0.040623102 0.28454581 0.77100003 4285560434
-0.039895173 0.28454581 0.77100003 4285560434
-0.03916724 0.28454581 0.77100003 4285626227
-0.038439307 0.28454581 0.77100003 4285889399
-0.037711378 0.28454581 0.77100003 4286086778
-0.036935478 0.28417677 0.77000004 4286020985
-0.036208492 0.28417677 0.77000004 4285955192
-0.035481505 0.28417677 0.77000004 4285823606
-0.034754518 0.28417677 0.77000004 4285955192
-0.034027528 0.28417677 0.77000004 4286218364
-0.033300541 0.28417677 0.77000004 4286152571
-0.032573555 0.28417677 0.77000004 4285889399
-0.031805206 0.28380769 0.76900005 4285889142
-0.031119579 0.28417677 0.77000004 4286218107
-0.030353121 0.28380769 0.76900005 4286283900
-0.029665604 0.28417677 0.77000004 4286086521
-0.028938618 0.28417677 0.77000004 4285889142
-0.028248267 0.28454581 0.77100003 4285625970
-0.027520336 0.28454581 0.77100003 4285559922
-0.026827155 0.28491488 0.77200001 4285560179
-0.026132084 0.28528395 0.77300006 4285165419
-0.025435127 0.285653 0.77400005 4284770661
-0.02473628 0.28602207 0.77500004 4284507489
-0.024004571 0.28602207 0.77500004 4284310110
-0.023302894 0.28639111 0.77600002 4284244828
-0.022599326 0.28676018 0.77700001 4284310621
-0.021865731 0.28676018 0.77700001 4284310621
-0.021132134 0.28676018 0.77700001 4284442207
-0.020398539 0.28676018 0.77700001 4284376414
-0.019690251 0.28712925 0.77800006 4284310621
-0.018955709 0.28712925 0.77800006 4284310621
-0.01826801 0.28786737 0.78000003 4284310621
-0.017531581 0.28786737 0.78000003 4284179035
-0.016816685 0.28823641 0.78100002 4284179035
-0.0160999 0.28860548 0.78200006 4284179035
-0.015381226 0.28897455 0.78300005 4284113242
-0.014641966 0.28897455 0.78300005 4283915863
-0.01392046 0.2893436 0.78400004 4283784278
-0.013180255 0.2893436 0.78400004 4283849816
-0.012455917 0.28971267 0.78500003 4283784279
-0.011714768 0.28971267 0.78500003 4283849816
-0.010987597 0.29008171 0.78600001 4283915609
-0.010245503 0.29008171 0.78600001 4283784025
-0.0095155006 0.29045078 0.78700006 4283849817
-0.0087836096 0.29081985 0.78800005 4283981402
-0.0080396272 0.29081985 0.78800005 4283849816
-0.0072956453 0.29081985 0.78800005 4283652437
-0.0065682926 0.29155797 0.79000002 4283652437
-0.0058297925 0.29192701 0.79100001 4283718484
-0.0050829779 0.29192701 0.79100001 4283718484
-0.0043471274 0.29266515 0.79300004 4283718484
-0.0035984246 0.29266515 0.79300004 4283718484
-0.0028533156 0.2930342 0.79400003 4283718483
-0.0021063183 0.29340327 0.79500002 4283718483
-0.0013557274 0.29340327 0.79500002 4283718483
-0.00060589763 0.29377234 0.79600006 4283850069
0.00014582041 0.29414138 0.79700005 4283981655
0.0008994267 0.29451045 0.79800004 4283981655
0.0016528501 0.29451045 0.79800004 4283915862
-0.076414816 0.29415232 0.79500002 4284507744
-0.075664222 0.29415232 0.79500002 4284508000
-0.074819408 0.29378229 0.79400003 4284573793
-0.073976472 0.2934123 0.79300004 4284508000
-0.073227771 0.2934123 0.79300004 4284573792
-0.072296269 0.29267228 0.79100001 4284639586
-0.071458995 0.29230228 0.79000002 4284574563
-0.070265576 0.29045227 0.78500003 4284442977
-0.069435865 0.29008228 0.78400004 4284442976
-0.068520419 0.28934225 0.78200006 4284706149
-0.067435384 0.28786227 0.77800006 4285232492
-0.066615112 0.28749225 0.77700001 4285166699
-0.065796725 0.28712225 0.77600002 4285035114
-0.06506408 0.28712225 0.77600002 4285166700
-0.064248517 0.28675225 0.77500004 4285166701
-0.063516811 0.28675225 0.77500004 4285100652
-0.062785104 0.28675225 0.77500004 4285034860
-0.062053394 0.28675225 0.77500004 4285100653
-0.061400812 0.28712225 0.77600002 4285232241
-0.060668159 0.28712225 0.77600002 4285232241
-0.059858274 0.28675225 0.77500004 4285429364
-0.059126563 0.28675225 0.77500004 4285560949
-0.058394857 0.28675225 0.77500004 4285429364
-0.057588741 0.28638223 0.77400005 4285232241
-0.056857977 0.28638223 0.77400005 4285297264
-0.056199729 0.28675225 0.77500004 4285297264
-0.055468023 0.28675225 0.77500004 4285428850
-0.054736316 0.28675225 0.77500004 4285428850
-0.054004606 0.28675225 0.77500004 4285626229
-0.053272899 0.28675225 0.77500004 4285757815
-0.052541189 0.28675225 0.77500004 4285560435
-0.051809482 0.28675225 0.77500004 4285494641
-0.05094596 0.28601226 0.77300006 4285428848
-0.05015118 0.28564224 0.77200001 4285428848
-0.049358282 0.28527221 0.77100003 4285494641
-0.048630349 0.28527221 0.77100003 4285626227
-0.04790242 0.28527221 0.77100003 4285692020
-0.047174487 0.28527221 0.77100003 4285560434
-0.046386316 0.28490224 0.77000004 4285494641
-0.045718625 0.28527221 0.77100003 4285363055
-0.044990692 0.28527221 0.77100003 4285428848
-0.044262763 0.28527221 0.77100003 4285626227
-0.04353483 0.28527221 0.77100003 4285626227
-0.042806897 0.28527221 0.77100003 4285560434
-0.042078968 0.28527221 0.77100003 4285428848
-0.041351035 0.28527221 0.77100003 4285428848
-0.040623102 0.28527221 0.77100003 4285494641
-0.039895173 0.28527221 0.77100003 4285494641
-0.03916724 0.28527221 0.77100003 4285692020
-0.038439307 0.28527221 0.77100003 4285889399
-0.037711378 0.28527221 0.77100003 4285955192
-0.036983445 0.28527221 0.77100003 4285889399
-0.036208492 0.28490224 0.77000004 4285823606
-0.035481505 0.28490224 0.77000004 4285757813
-0.034754518 0.28490224 0.77000004 4285889399
-0.034027528 0.28490224 0.77000004 4286086778
-0.033300541 0.28490224 0.77000004 4286020985
-0.032573555 0.28490224 0.77000004 4285757813
-0.031846568 0.28490224 0.77000004 4285954935
-0.031119579 0.28490224 0.77000004 4286283900
-0.030392593 0.28490224 0.77000004 4286349693
-0.029665604 0.28490224 0.77000004 4286086521
-0.028938618 0.28490224 0.77000004 4285954935
-0.028248267 0.28527221 0.77100003 4285823349
-0.027520336 0.28527221 0.77100003 4285691763
-0.026861904 0.28601226 0.77300006 4285560177
-0.026132084 0.28601226 0.77300006 4285231212
-0.025435127 0.28638223 0.77400005 4284770661
-0.02473628 0.28675225 0.77500004 4284441953
-0.024004571 0.28675225 0.77500004 4284310110
-0.023302894 0.28712225 0.77600002 4284179035
-0.022599326 0.28749225 0.77700001 4284244828
-0.021865731 0.28749225 0.77700001 4284244828
-0.021132134 0.28749225 0.77700001 4284376414
-0.020398539 0.28749225 0.77700001 4284376414
-0.019690251 0.28786227 0.77800006 4284310621
-0.018955709 0.28786227 0.77800006 4284244828
-0.01826801 0.28860226 0.78000003 4284244828
-0.017531581 0.28860226 0.78000003 4284244827
-0.016816685 0.28897226 0.78100002 4284244828
-0.01612049 0.28971228 0.78300005 4284179034
-0.015381226 0.28971228 0.78300005 4284047449
-0.014641966 0.28971228 0.78300005 4283915863
-0.01392046 0.29008228 0.78400004 4283784277
-0.013197067 0.29045227 0.78500003 4283915863
-0.012455917 0.29045227 0.78500003 4283850070
-0.01172969 0.29082227 0.78600001 4283718229
-0.010987597 0.29082227 0.78600001 4283784023
-0.010245503 0.29082227 0.78600001 4283849816
-0.0095155006 0.29119229 0.78700006 4283915608
-0.0087836096 0.29156229 0.78800005 4283915863
-0.0080396272 0.29156229 0.78800005 4283784278
-0.0073049041 0.29193228 0.78900003 4283652437
-0.0065766065 0.29267228 0.79100001 4283652436
-0.0058297925 0.29267228 0.79100001 4283784277
-0.0050829779 0.29267228 0.79100001 4283784277
-0.0043471274 0.2934123 0.79300004 4283718484
-0.0036029622 0.29378229 0.79400003 4283718484
-0.0028533156 0.29378229 0.79400003 4283718483
-0.0021089676 0.29452232 0.79600006 4283718483
-0.0013574327 0.29452232 0.79600006 4283718483
-0.00060589763 0.29452232 0.79600006 4283784276
0.00014582041 0.29489231 0.79700005 4283850069
-0.073227771 0.29415947 0.79300004 4284507999
-0.072296269 0.29341754 0.79100001 4284639585
-0.071458995 0.29304662 0.79000002 4284574306
-0.070265576 0.29119191 0.78500003 4284442719
-0.0693473 0.29045001 0.78300005 4284311390
-0.068520419 0.29007906 0.78200006 4284640355
-0.067435384 0.28859529 0.77800006 4285298285
-0.066615112 0.28822434 0.77700001 4285298285
-0.065796725 0.28785336 0.77600002 4285166699
-0.06506408 0.28785336 0.77600002 4285232492
-0.064248517 0.28748244 0.77500004 4285232493
-0.063516811 0.28748244 0.77500004 4285232493
-0.062785104 0.28748244 0.77500004 4285232238
-0.062053394 0.28748244 0.77500004 4285166446
-0.061321687 0.28748244 0.77500004 4285297776
-0.06058998 0.28748244 0.77500004 4285363570
-0.059858274 0.28748244 0.77500004 4285560436
-0.059126563 0.28748244 0.77500004 4285560436
-0.058319505 0.28711149 0.77400005 4285363057
-0.057588741 0.28711149 0.77400005 4285297264
-0.056857977 0.28711149 0.77400005 4285231471
-0.056127213 0.28711149 0.77400005 4285165678
-0.055396449 0.28711149 0.77400005 4285363057
-0.054665685 0.28711149 0.77400005 4285363057
-0.053934921 0.28711149 0.77400005 4285494643
-0.053204156 0.28711149 0.77400005 4285626229
-0.052473392 0.28711149 0.77400005 4285560436
-0.051742628 0.28711149 0.77400005 4285428850
-0.05094596 0.28674057 0.77300006 4285428848
-0.05015118 0.28636962 0.77200001 4285428848
-0.049358282 0.28599864 0.77100003 4285494641
-0.048630349 0.28599864 0.77100003 4285626227
-0.04790242 0.28599864 0.77100003 4285626227
-0.047174487 0.28599864 0.77100003 4285626227
-0.046446554 0.28599864 0.77100003 4285494641
-0.045718625 0.28599864 0.77100003 4285428848
-0.044990692 0.28599864 0.77100003 4285363055
-0.044262763 0.28599864 0.77100003 4285494641
-0.04353483 0.28599864 0.77100003 4285560434
-0.042806897 0.28599864 0.77100003 4285560434
-0.042078968 0.28599864 0.77100003 4285363055
-0.041351035 0.28599864 0.77100003 4285428848
-0.040623102 0.28599864 0.77100003 4285494641
-0.039895173 0.28599864 0.77100003 4285494641
-0.03916724 0.28599864 0.77100003 4285757813
-0.038439307 0.28599864 0.77100003 4285955192
-0.037711378 0.28599864 0.77100003 4285955192
-0.036983445 0.28599864 0.77100003 4285889399
-0.036208492 0.28562772 0.77000004 4285823606
-0.035481505 0.28562772 0.77000004 4285823606
-0.034754518 0.28562772 0.77000004 4285955192
-0.034027528 0.28562772 0.77000004 4286086778
-0.033300541 0.28562772 0.77000004 4286020985
-0.032573555 0.28562772 0.77000004 4285823606
-0.031846568 0.28562772 0.77000004 4286020985
-0.031079162 0.28525677 0.76900005 4286284157
-0.030353121 0.28525677 0.76900005 4286284157
-0.029627077 0.28525677 0.76900005 4286086778
-0.028938618 0.28562772 0.77000004 4286086521
-0.028211631 0.28562772 0.77000004 4286086521
-0.027520336 0.28599864 0.77100003 4285757813
-0.026827155 0.28636962 0.77200001 4285494641
-0.026132084 0.28674057 0.77300006 4285231212
-0.025402265 0.28674057 0.77300006 4284770918
-0.02473628 0.28748244 0.77500004 4284441953
-0.024004571 0.28748244 0.77500004 4284310367
-0.023302894 0.28785336 0.77600002 4284179035
-0.022570241 0.28785336 0.77600002 4284179035
-0.021837588 0.28785336 0.77600002 4284244828
-0.021104937 0.28785336 0.77600002 4284310621
-0.020398539 0.28822434 0.77700001 4284310621
-0.019690251 0.28859529 0.77800006 4284244828
-0.018955709 0.28859529 0.77800006 4284244828
-0.01826801 0.28933716 0.78000003 4284310621
-0.017531581 0.28933716 0.78000003 4284310620
-0.016816685 0.28970811 0.78100002 4284244827
-0.0160999 0.29007906 0.78200006 4284179034
-0.015381226 0.29045001 0.78300005 4284113241
-0.014641966 0.29045001 0.78300005 4283981655
-0.01392046 0.29082093 0.78400004 4283850069
-0.013180255 0.29082093 0.78400004 4283915863
-0.01244005 0.29082093 0.78400004 4283850070
-0.011714768 0.29119191 0.78500003 4283718484
-0.010987597 0.29156283 0.78600001 4283850070
-0.010245503 0.29156283 0.78600001 4283915865
-0.0095275911 0.29230472 0.78800005 4283981401
-0.0087836096 0.29230472 0.78800005 4283850070
-0.0080498299 0.29267567 0.78900003 4283850070
-0.0073049041 0.29267567 0.78900003 4283718484
-0.0065766065 0.29341754 0.79100001 4283718484
-0.0058371625 0.29378849 0.79200006 4283784277
-0.0050894041 0.29378849 0.79200006 4283850070
-0.0043526092 0.29453039 0.79400003 4283718484
-0.0036075001 0.29490134 0.79500002 4283718483
-0.0028569093 0.29490134 0.79500002 4283718483
-0.072296269 0.29416281 0.79100001 4284507999
-0.071458995 0.29379094 0.79000002 4284573792
-0.070176065 0.29155961 0.78400004 4284442206
-0.0693473 0.29118773 0.78300005 4284376926
-0.068520419 0.29081586 0.78200006 4284706148
-0.067435384 0.28932831 0.77800006 4285363821
-0.066615112 0.2889564 0.77700001 4285364078
-0.065796725 0.2885845 0.77600002 4285298028
-0.06506408 0.2885845 0.77600002 4285364078
-0.064248517 0.28821266 0.77500004 4285429615
-0.063516811 0.28821266 0.77500004 4285298030
-0.062785104 0.28821266 0.77500004 4285298032
-0.062053394 0.28821266 0.77500004 4285363568
-0.061321687 0.28821266 0.77500004 4285428848
-0.06058998 0.28821266 0.77500004 4285494641
-0.059858274 0.28821266 0.77500004 4285560436
-0.059050269 0.28784075 0.77400005 4285494643
-0.058319505 0.28784075 0.77400005 4285428850
-0.057588741 0.28784075 0.77400005 4285428850
-0.056857977 0.28784075 0.77400005 4285428850
-0.056127213 0.28784075 0.77400005 4285363057
-0.055396449 0.28784075 0.77400005 4285363057
-0.054665685 0.28784075 0.77400005 4285297264
-0.053934921 0.28784075 0.77400005 4285363057
-0.053204156 0.28784075 0.77400005 4285494643
-0.052473392 0.28784075 0.77400005 4285494643
-0.051742628 0.28784075 0.77400005 4285363057
-0.05094596 0.28746888 0.77300006 4285297264
-0.05015118 0.28709698 0.77200001 4285363057
-0.049358282 0.28672507 0.77100003 4285363057
-0.048630349 0.28672507 0.77100003 4285428850
-0.04790242 0.28672507 0.77100003 4285494641
-0.047174487 0.28672507 0.77100003 4285494641
-0.046446554 0.28672507 0.77100003 4285428849
-0.045718625 0.28672507 0.77100003 4285297263
-0.044990692 0.28672507 0.77100003 4285231469
-0.044262763 0.28672507 0.77100003 4285297262
-0.04353483 0.28672507 0.77100003 4285428848
-0.042806897 0.28672507 0.77100003 4285494641
-0.042078968 0.28672507 0.77100003 4285428848
-0.041351035 0.28672507 0.77100003 4285494641
-0.040623102 0.28672507 0.77100003 4285560434
-0.039843429 0.2863532 0.77000004 4285494641
-0.03916724 0.28672507 0.77100003 4285692020
-0.038439307 0.28672507 0.77100003 4285889399
-0.037711378 0.28672507 0.77100003 4285955192
-0.036983445 0.28672507 0.77100003 4285823606
-0.036208492 0.2863532 0.77000004 4285823606
-0.035481505 0.2863532 0.77000004 4285889399
-0.034754518 0.2863532 0.77000004 4286020985
-0.034027528 0.2863532 0.77000004 4286152571
-0.033300541 0.2863532 0.77000004 4286086778
-0.032573555 0.2863532 0.77000004 4285889399
-0.031846568 0.2863532 0.77000004 4286086778
-0.031079162 0.2859813 0.76900005 4286284157
-0.030353121 0.2859813 0.76900005 4286284157
-0.029627077 0.2859813 0.76900005 4286218364
-0.028938618 0.2863532 0.77000004 4286086778
-0.028211631 0.2863532 0.77000004 4285955192
-0.027520336 0.28672507 0.77100003 4285626227
-0.026827155 0.28709698 0.77200001 4285363055
-0.026132084 0.28746888 0.77300006 4285034090
-0.025402265 0.28746888 0.77300006 4284705125
-0.02473628 0.28821266 0.77500004 4284507746
-0.024004571 0.28821266 0.77500004 4284244830
-0.023302894 0.2885845 0.77600002 4284179035
-0.022570241 0.2885845 0.77600002 4284179035
-0.021837588 0.2885845 0.77600002 4284310621
-0.021104937 0.2885845 0.77600002 4284376414
-0.020398539 0.2889564 0.77700001 4284310621
-0.019690251 0.28932831 0.77800006 4284244828
-0.018955709 0.28932831 0.77800006 4284310621
-0.01826801 0.29007208 0.78000003 4284310621
-0.017531581 0.29007208 0.78000003 4284310620
-0.016816685 0.29044396 0.78100002 4284179034
-0.0160999 0.29081586 0.78200006 4284113241
-0.015361583 0.29081586 0.78200006 4284113241
-0.014623266 0.29081586 0.78200006 4284047448
-0.013902704 0.29118773 0.78300005 4283915862
-0.013163443 0.29118773 0.78300005 4283915862
-0.012424182 0.29118773 0.78300005 4283850070
-0.011714768 0.29193151 0.78500003 4283850070
-0.010987597 0.29230338 0.78600001 4283850070
-0.010245503 0.29230338 0.78600001 4283915863
-0.0095275911 0.29304719 0.78800005 4283850070
-0.0087836096 0.29304719 0.78800005 4283784277
-0.0080498299 0.29341906 0.78900003 4283915862
-0.0073049041 0.29341906 0.78900003 4283850070
-0.0065849209 0.29453471 0.79200006 4283784277
-0.0058371625 0.29453471 0.79200006 4283850070
-0.0050958297 0.29490662 0.79300004 4283784277
-0.0043526092 0.29527849 0.79400003 4283652691
-0.072204866 0.29453528 0.79000002 4284442206
-0.071278095 0.29378963 0.78800005 4284442207
-0.070176065 0.29229829 0.78400004 4284442206
-0.0693473 0.29192549 0.78300005 4284573792
-0.068432793 0.29117981 0.78100002 4284836964
-0.067435384 0.29006132 0.77800006 4285363308
-0.066700846 0.29006132 0.77800006 4285429101
-0.065881521 0.2896885 0.77700001 4285429101
-0.06506408 0.28931564 0.77600002 4285494895
-0.064248517 0.28894284 0.77500004 4285429102
-0.063516811 0.28894284 0.77500004 4285297516
-0.062785104 0.28894284 0.77500004 4285363055
-0.062053394 0.28894284 0.77500004 4285494641
-0.061321687 0.28894284 0.77500004 4285428848
-0.06058998 0.28894284 0.77500004 4285363055
-0.059935506 0.28931564 0.77600002 4285363057
-0.059126563 0.28894284 0.77500004 4285428850
-0.058394857 0.28894284 0.77500004 4285494643
-0.057663146 0.28894284 0.77500004 4285494643
-0.05693144 0.28894284 0.77500004 4285494643
-0.056199729 0.28894284 0.77500004 4285494643
-0.055468023 0.28894284 0.77500004 4285363057
-0.054665685 0.28856999 0.77400005 4285297264
-0.053934921 0.28856999 0.77400005 4285297264
-0.053204156 0.28856999 0.77400005 4285363057
-0.052473392 0.28856999 0.77400005 4285363057
-0.051742628 0.28856999 0.77400005 4285231471
-0.05094596 0.28819719 0.77300006 4285165678
-0.050216138 0.28819719 0.77300006 4285231471
-0.049422305 0.28782433 0.77200001 4285297264
-0.048693426 0.28782433 0.77200001 4285363057
-0.047964551 0.28782433 0.77200001 4285428850
-0.047235675 0.28782433 0.77200001 4285428850
-0.0465068 0.28782433 0.77200001 4285428850
-0.045777924 0.28782433 0.77200001 4285297264
-0.045049049 0.28782433 0.77200001 4285165677
-0.044320174 0.28782433 0.77200001 4285165677
-0.043591298 0.28782433 0.77200001 4285363055
-0.042862423 0.28782433 0.77200001 4285363055
-0.042133547 0.28782433 0.77200001 4285494641
-0.041404672 0.28782433 0.77200001 4285428848
-0.040675797 0.28782433 0.77200001 4285363055
-0.039946917 0.28782433 0.77200001 4285428848
-0.039218042 0.28782433 0.77200001 4285494641
-0.038489167 0.28782433 0.77200001 4285823606
-0.037760291 0.28782433 0.77200001 4285823606
-0.037031416 0.28782433 0.77200001 4285757813
-0.03630254 0.28782433 0.77200001 4285692020
-0.035527583 0.28745151 0.77100003 4285757813
-0.03479965 0.28745151 0.77100003 4285955192
-0.034071721 0.28745151 0.77100003 4286020985
-0.033343788 0.28745151 0.77100003 4286020985
-0.032573555 0.28707868 0.77000004 4285955192
-0.031846568 0.28707868 0.77000004 4285889399
-0.031119579 0.28707868 0.77000004 4286152571
-0.030392593 0.28707868 0.77000004 4286152571
-0.029665604 0.28707868 0.77000004 4286086778
-0.028938618 0.28707868 0.77000004 4285955192
-0.028248267 0.28745151 0.77100003 4285757813
-0.027520336 0.28745151 0.77100003 4285428848
-0.026861904 0.28819719 0.77300006 4285099883
-0.026132084 0.28819719 0.77300006 4284836711
-0.025435127 0.28856999 0.77400005 4284639332
-0.02473628 0.28894284 0.77500004 4284441952
-0.024035547 0.28931564 0.77600002 4284179037
-0.023302894 0.28931564 0.77600002 4284047449
-0.022599326 0.2896885 0.77700001 4284113242
-0.021865731 0.2896885 0.77700001 4284310621
-0.021132134 0.2896885 0.77700001 4284442207
-0.020424791 0.29006132 0.77800006 4284376414
-0.019715561 0.29043415 0.77900004 4284310621
-0.018980075 0.29043415 0.77900004 4284179034
-0.018291431 0.29117981 0.78100002 4284179034
-0.017554058 0.29117981 0.78100002 4284113241
-0.016816685 0.29117981 0.78100002 4284113241
-0.0160999 0.29155263 0.78200006 4284047448
-0.015381226 0.29192549 0.78300005 4284047448
-0.014641966 0.29192549 0.78300005 4284047448
-0.01392046 0.29229829 0.78400004 4283981655
-0.013180255 0.29229829 0.78400004 4283915862
-0.01244005 0.29229829 0.78400004 4283981655
-0.011714768 0.29267114 0.78500003 4283915863
-0.010973618 0.29267114 0.78500003 4283784277
-0.010245503 0.29304394 0.78600001 4283718484
-0.0095275911 0.29378963 0.78800005 4283718483
-0.0087836096 0.29378963 0.78800005 4283718483
-0.0080498299 0.29416242 0.78900003 4283784276
-0.0073141628 0.29453528 0.79000002 4283718484
-0.0065849209 0.29528093 0.79200006 4283652691
-0.0058371625 0.29528093 0.79200006 4283718484
-0.0050958297 0.29565376 0.79300004 4283718484
-0.072204866 0.29527959 0.79000002 4284376414
-0.071458995 0.29527959 0.79000002 4284310621
-0.070176065 0.29303697 0.78400004 4284376414
-0.0693473 0.29266322 0.78300005 4284508000
-0.068520419 0.29228944 0.78200006 4284771171
-0.067435384 0.29079434 0.77800006 4285297516
-0.066700846 0.29079434 0.77800006 4285429102
-0.065881521 0.29042056 0.77700001 4285429102
-0.065147921 0.29042056 0.77700001 4285429102
-0.064414322 0.29042056 0.77700001 4285297517
-0.063680731 0.29042056 0.77700001 4285165931
-0.062947132 0.29042056 0.77700001 4285297262
-0.062213536 0.29042056 0.77700001 4285494641
-0.061479937 0.29042056 0.77700001 4285428848
-0.060746342 0.29042056 0.77700001 4285297262
-0.060012747 0.29042056 0.77700001 4285231471
-0.059202854 0.29004678 0.77600002 4285428850
-0.058470201 0.29004678 0.77600002 4285560436
-0.057663146 0.28967303 0.77500004 4285428850
-0.057004899 0.29004678 0.77600002 4285363057
-0.056272246 0.29004678 0.77600002 4285363057
-0.055539593 0.29004678 0.77600002 4285428850
-0.05480694 0.29004678 0.77600002 4285363057
-0.054074287 0.29004678 0.77600002 4285297264
-0.053341638 0.29004678 0.77600002 4285297264
-0.052541189 0.28967303 0.77500004 4285363057
-0.051809482 0.28967303 0.77500004 4285297264
-0.051011864 0.28929925 0.77400005 4285165678
-0.050216138 0.2889255 0.77300006 4285297264
-0.04948632 0.2889255 0.77300006 4285297264
-0.048693426 0.28855172 0.77200001 4285428850
-0.047964551 0.28855172 0.77200001 4285494643
-0.047235675 0.28855172 0.77200001 4285428850
-0.046567041 0.2889255 0.77300006 4285363057
-0.04583722 0.2889255 0.77300006 4285297264
-0.045107402 0.2889255 0.77300006 4285231471
-0.04437758 0.2889255 0.77300006 4285231471
-0.043647762 0.2889255 0.77300006 4285363055
-0.042917941 0.2889255 0.77300006 4285297262
-0.042188123 0.2889255 0.77300006 4285428848
-0.041458301 0.2889255 0.77300006 4285297262
-0.040728483 0.2889255 0.77300006 4285231469
-0.039998662 0.2889255 0.77300006 4285297262
-0.039218042 0.28855172 0.77200001 4285363055
-0.038489167 0.28855172 0.77200001 4285692020
-0.037760291 0.28855172 0.77200001 4285757813
-0.037031416 0.28855172 0.77200001 4285692020
-0.03630254 0.28855172 0.77200001 4285626227
-0.035573665 0.28855172 0.77200001 4285692020
-0.03484479 0.28855172 0.77200001 4285889399
-0.034071721 0.28817794 0.77100003 4285889399
-0.033343788 0.28817794 0.77100003 4285823606
-0.032615855 0.28817794 0.77100003 4285823606
-0.031887926 0.28817794 0.77100003 4285757813
-0.031119579 0.28780419 0.77000004 4286020985
-0.030392593 0.28780419 0.77000004 4286086778
-0.029665604 0.28780419 0.77000004 4285889399
-0.028938618 0.28780419 0.77000004 4285823606
-0.028248267 0.28817794 0.77100003 4285757813
-0.027520336 0.28817794 0.77100003 4285428847
-0.026861904 0.2889255 0.77300006 4284902760
-0.026165891 0.28929925 0.77400005 4284705124
-0.025435127 0.28929925 0.77400005 4284507745
-0.024768198 0.29004678 0.77600002 4284310621
-0.024035547 0.29004678 0.77600002 4284179035
-0.023302894 0.29004678 0.77600002 4284113242
-0.022599326 0.29042056 0.77700001 4284179035
-0.021865731 0.29042056 0.77700001 4284376414
-0.021159332 0.29079434 0.77800006 4284442207
-0.020424791 0.29079434 0.77800006 4284376413
-0.019715561 0.29116809 0.77900004 4284310620
-0.019004438 0.2915419 0.78000003 4284047448
-0.01826801 0.2915419 0.78000003 4283981655
-0.017576534 0.29228944 0.78200006 4284047448
-0.016838217 0.29228944 0.78200006 4284113241
-0.0160999 0.29228944 0.78200006 4283981655
-0.015381226 0.29266322 0.78300005 4283915862
-0.014660666 0.29303697 0.78400004 4283981655
-0.01392046 0.29303697 0.78400004 4284047448
-0.013180255 0.29303697 0.78400004 4283981655
-0.01244005 0.29303697 0.78400004 4284047448
-0.011714768 0.29341075 0.78500003 4283981655
-0.010987597 0.2937845 0.78600001 4283718484
-0.010245503 0.2937845 0.78600001 4283652691
-0.0095155006 0.29415828 0.78700006 4283652691
-0.0087947566 0.29490581 0.78900003 4283718483
-0.0080600325 0.29527959 0.79000002 4283652691
-0.0073141628 0.29527959 0.79000002 4283586898
-0.0065849209 0.29602715 0.79200006 4283521105
-0.070265576 0.29415035 0.78500003 4284244829
-0.0693473 0.29340094 0.78300005 4284442208
-0.068257548 0.29190207 0.77900004 4284705380
-0.067522064 0.29190207 0.77900004 4285231723
-0.066700846 0.29152736 0.77800006 4285429102
-0.065881521 0.29115266 0.77700001 4285363310
-0.065147921 0.29115266 0.77700001 4285363310
-0.064414322 0.29115266 0.77700001 4285297262
-0.063680731 0.29115266 0.77700001 4285165676
-0.062947132 0.29115266 0.77700001 4285297262
-0.062213536 0.29115266 0.77700001 4285363055
-0.061479937 0.29115266 0.77700001 4285363056
-0.060746342 0.29115266 0.77700001 4285297263
-0.060012747 0.29115266 0.77700001 4285231471
-0.059279148 0.29115266 0.77700001 4285363057
-0.058470201 0.29077792 0.77600002 4285494643
-0.057737552 0.29077792 0.77600002 4285363057
-0.057004899 0.29077792 0.77600002 4285231471
-0.056272246 0.29077792 0.77600002 4285297264
-0.055539593 0.29077792 0.77600002 4285363057
-0.05480694 0.29077792 0.77600002 4285428850
-0.054074287 0.29077792 0.77600002 4285363057
-0.053341638 0.29077792 0.77600002 4285363057
-0.052608985 0.29077792 0.77600002 4285428850
-0.051876333 0.29077792 0.77600002 4285363057
-0.051077776 0.29040322 0.77500004 4285231471
-0.0502811 0.29002851 0.77400005 4285363057
-0.04948632 0.28965381 0.77300006 4285428850
-0.048756499 0.28965381 0.77300006 4285494643
-0.048026681 0.28965381 0.77300006 4285494643
-0.047235675 0.28927907 0.77200001 4285297264
-0.046567041 0.28965381 0.77300006 4285231471
-0.04583722 0.28965381 0.77300006 4285297264
-0.045107402 0.28965381 0.77300006 4285297263
-0.04437758 0.28965381 0.77300006 4285297264
-0.043647762 0.28965381 0.77300006 4285363055
-0.042973462 0.29002851 0.77400005 4285428848
-0.042242698 0.29002851 0.77400005 4285363055
-0.041511934 0.29002851 0.77400005 4285363055
-0.04078117 0.29002851 0.77400005 4285297262
-0.039998662 0.28965381 0.77300006 4285231469
-0.039268844 0.28965381 0.77300006 4285363056
-0.038539022 0.28965381 0.77300006 4285494642
-0.037809204 0.28965381 0.77300006 4285626228
-0.037031416 0.28927907 0.77200001 4285560435
-0.03630254 0.28927907 0.77200001 4285560434
-0.035573665 0.28927907 0.77200001 4285692020
-0.03484479 0.28927907 0.77200001 4285889399
-0.034115914 0.28927907 0.77200001 4285823606
-0.033387039 0.28927907 0.77200001 4285692020
-0.032615855 0.28890437 0.77100003 4285692020
-0.031887926 0.28890437 0.77100003 4285692020
-0.031159993 0.28890437 0.77100003 4286020985
-0.030392593 0.28852966 0.77000004 4286086778
-0.029665604 0.28852966 0.77000004 4285823606
-0.028976198 0.28890437 0.77100003 4285757813
-0.028248267 0.28890437 0.77100003 4285823605
-0.02755603 0.28927907 0.77200001 4285429102
-0.026861904 0.28965381 0.77300006 4284902758
-0.026165891 0.29002851 0.77400005 4284639586
-0.025467988 0.29040322 0.77500004 4284376414
-0.02473628 0.29040322 0.77500004 4284244828
-0.024035547 0.29077792 0.77600002 4284310621
-0.023332924 0.29115266 0.77700001 4284244828
-0.022599326 0.29115266 0.77700001 4284244827
-0.021893872 0.29152736 0.77800006 4284376414
-0.021159332 0.29152736 0.77800006 4284310621
-0.020451045 0.29190207 0.77900004 4284244827
-0.019715561 0.29190207 0.77900004 4284113241
-0.019004438 0.2922768 0.78000003 4284047448
-0.018291431 0.2926515 0.78100002 4284047448
-0.017576534 0.29302621 0.78200006 4284179034
-0.016859749 0.29340094 0.78300005 4284113241
-0.01612049 0.29340094 0.78300005 4283915862
-0.015400871 0.29377565 0.78400004 4283850069
-0.014660666 0.29377565 0.78400004 4283915862
-0.013938216 0.29415035 0.78500003 4283915862
-0.013197067 0.29415035 0.78500003 4283981655
-0.012455917 0.29415035 0.78500003 4283981655
-0.011714768 0.29415035 0.78500003 4283784277
-0.010987597 0.29452506 0.78600001 4283718483
-0.010258539 0.29489979 0.78700006 4283784277
-0.0095155006 0.29489979 0.78700006 4283784276
-0.0087947566 0.2956492 0.78900003 4283718483
-0.0080600325 0.29602394 0.79000002 4283652690
-0.0073141628 0.29602394 0.79000002 4283521105
-0.070265576 0.29488999 0.78500003 4284178781
-0.069435865 0.2945143 0.78400004 4284441953
-0.068257548 0.29263604 0.77900004 4284705125
-0.067522064 0.29263604 0.77900004 4285231724
-0.066700846 0.29226041 0.77800006 4285363310
-0.065881521 0.29188472 0.77700001 4285363055
-0.065147921 0.29188472 0.77700001 4285363055
-0.064414322 0.29188472 0.77700001 4285297262
-0.063680731 0.29188472 0.77700001 4285231469
-0.062947132 0.29188472 0.77700001 4285297262
-0.062213536 0.29188472 0.77700001 4285297262
-0.061479937 0.29188472 0.77700001 4285297263
-0.060746342 0.29188472 0.77700001 4285297264
-0.060012747 0.29188472 0.77700001 4285297263
-0.059202854 0.29150906 0.77600002 4285297264
-0.058470201 0.29150906 0.77600002 4285363057
-0.057737552 0.29150906 0.77600002 4285363057
-0.057004899 0.29150906 0.77600002 4285297264
-0.056272246 0.29150906 0.77600002 4285297264
-0.055539593 0.29150906 0.77600002 4285297264
-0.05480694 0.29150906 0.77600002 4285363057
-0.054074287 0.29150906 0.77600002 4285363057
-0.053341638 0.29150906 0.77600002 4285297264
-0.052608985 0.29150906 0.77600002 4285363057
-0.051809482 0.29113343 0.77500004 4285297264
-0.051077776 0.29113343 0.77500004 4285165677
-0.0502811 0.29075775 0.77400005 4285231471
-0.04948632 0.29038212 0.77300006 4285428850
-0.048756499 0.29038212 0.77300006 4285428850
-0.048026681 0.29038212 0.77300006 4285363056
-0.047296859 0.29038212 0.77300006 4285165678
-0.046567041 0.29038212 0.77300006 4285231471
-0.04583722 0.29038212 0.77300006 4285297264
-0.045107402 0.29038212 0.77300006 4285297263
-0.044434991 0.29075775 0.77400005 4285363056
-0.043704227 0.29075775 0.77400005 4285428849
-0.042973462 0.29075775 0.77400005 4285494641
-0.042297278 0.29113343 0.77500004 4285428848
-0.041565567 0.29113343 0.77500004 4285428849
-0.040833861 0.29113343 0.77500004 4285428848
-0.040050406 0.29075775 0.77400005 4285297262
-0.039319642 0.29075775 0.77400005 4285363057
-0.038539022 0.29038212 0.77300006 4285363057
-0.037809204 0.29038212 0.77300006 4285428850
-0.037079383 0.29038212 0.77300006 4285494643
-0.036349565 0.29038212 0.77300006 4285494641
-0.035619743 0.29038212 0.77300006 4285626227
-0.03484479 0.29000646 0.77200001 4285823606
-0.034115914 0.29000646 0.77200001 4285757813
-0.033387039 0.29000646 0.77200001 4285692020
-0.032615855 0.28963077 0.77100003 4285692020
-0.031887926 0.28963077 0.77100003 4285757813
-0.031159993 0.28963077 0.77100003 4286086778
-0.030392593 0.28925514 0.77000004 4286218364
-0.029665604 0.28925514 0.77000004 4285823606
-0.028938618 0.28925514 0.77000004 4285692020
-0.028248267 0.28963077 0.77100003 4285692020
-0.027520336 0.28963077 0.77100003 4285429102
-0.026861904 0.29038212 0.77300006 4285034344
-0.026165891 0.29075775 0.77400005 4284705379
-0.025435127 0.29075775 0.77400005 4284376414
-0.024768198 0.29150906 0.77600002 4284179035
-0.024035547 0.29150906 0.77600002 4284310621
-0.023302894 0.29150906 0.77600002 4284310620
-0.022570241 0.29150906 0.77600002 4284244827
-0.021893872 0.29226041 0.77800006 4284310620
-0.021159332 0.29226041 0.77800006 4284310620
-0.020424791 0.29226041 0.77800006 4284113241
-0.019740868 0.2930117 0.78000003 4283981655
-0.019028803 0.29338735 0.78100002 4284047448
-0.018314851 0.29376301 0.78200006 4284179034
-0.017599011 0.29413867 0.78300005 4284244827
-0.016859749 0.29413867 0.78300005 4284047448
-0.01612049 0.29413867 0.78300005 4283850069
-0.015400871 0.2945143 0.78400004 4283850069
-0.014660666 0.2945143 0.78400004 4283850069
-0.013938216 0.29488999 0.78500003 4283784277
-0.013197067 0.29488999 0.78500003 4283850069
-0.012455917 0.29488999 0.78500003 4283850070
-0.011714768 0.29488999 0.78500003 4283652691
-0.010987597 0.29526561 0.78600001 4283652691
-0.010258539 0.29564127 0.78700006 4283784534
-0.0095155006 0.29564127 0.78700006 4283784534
-0.0087947566 0.29639259 0.78900003 4283784277
-0.0080600325 0.29676825 0.79000002 4283652691
-0.070265576 0.29562959 0.78500003 4284112988
-0.0693473 0.2948764 0.78300005 4284376160
-0.068257548 0.29337001 0.77900004 4284705125
-0.067435384 0.29299343 0.77800006 4285297262
-0.066700846 0.29299343 0.77800006 4285428848
-0.065881521 0.29261681 0.77700001 4285363055
-0.065147921 0.29261681 0.77700001 4285297262
-0.064331427 0.2922402 0.77600002 4285297262
-0.063598774 0.2922402 0.77600002 4285297262
-0.062866122 0.2922402 0.77600002 4285363055
-0.062133469 0.2922402 0.77600002 4285363055
-0.061400812 0.2922402 0.77600002 4285297262
-0.060668159 0.2922402 0.77600002 4285363055
-0.059935506 0.2922402 0.77600002 4285428848
-0.059202854 0.2922402 0.77600002 4285363055
-0.058470201 0.2922402 0.77600002 4285297264
-0.057737552 0.2922402 0.77600002 4285363057
-0.057004899 0.2922402 0.77600002 4285297264
-0.056272246 0.2922402 0.77600002 4285297264
-0.055539593 0.2922402 0.77600002 4285297264
-0.05480694 0.2922402 0.77600002 4285297264
-0.054074287 0.2922402 0.77600002 4285297264
-0.053272899 0.29186362 0.77500004 4285297264
-0.052541189 0.29186362 0.77500004 4285363056
-0.051809482 0.29186362 0.77500004 4285231470
-0.051011864 0.29148701 0.77400005 4285099883
-0.0502811 0.29148701 0.77400005 4285165676
-0.04948632 0.29111043 0.77300006 4285231469
-0.048756499 0.29111043 0.77300006 4285231469
-0.048026681 0.29111043 0.77300006 4285231469
-0.047296859 0.29111043 0.77300006 4285231469
-0.046567041 0.29111043 0.77300006 4285297264
-0.04583722 0.29111043 0.77300006 4285363057
-0.045107402 0.29111043 0.77300006 4285363057
-0.04437758 0.29111043 0.77300006 4285363057
-0.043704227 0.29148701 0.77400005 4285428850
-0.042973462 0.29148701 0.77400005 4285428850
-0.042297278 0.29186362 0.77500004 4285494643
-0.041565567 0.29186362 0.77500004 4285494643
-0.040833861 0.29186362 0.77500004 4285363057
-0.040050406 0.29148701 0.77400005 4285231471
-0.039319642 0.29148701 0.77400005 4285363057
-0.038539022 0.29111043 0.77300006 4285560436
-0.037809204 0.29111043 0.77300006 4285363057
-0.037031416 0.29073381 0.77200001 4285428850
-0.03630254 0.29073381 0.77200001 4285363055
-0.035573665 0.29073381 0.77200001 4285494641
-0.03484479 0.29073381 0.77200001 4285692020
-0.034115914 0.29073381 0.77200001 4285823606
-0.033387039 0.29073381 0.77200001 4285823606
-0.032615855 0.2903572 0.77100003 4285757813
-0.031887926 0.2903572 0.77100003 4285889399
-0.031159993 0.2903572 0.77100003 4286152571
-0.030392593 0.28998062 0.77000004 4286218364
-0.029665604 0.28998062 0.77000004 4285823862
-0.028938618 0.28998062 0.77000004 4285692276
-0.028248267 0.2903572 0.77100003 4285692275
-0.027520336 0.2903572 0.77100003 4285363309
-0.026861904 0.29111043 0.77300006 4285100137
-0.026132084 0.29111043 0.77300006 4284836965
-0.025402265 0.29111043 0.77300006 4284442207
-0.02473628 0.29186362 0.77500004 4284179035
-0.024035547 0.2922402 0.77600002 4284244828
-0.023302894 0.2922402 0.77600002 4284244827
-0.022599326 0.29261681 0.77700001 4284113241
-0.021865731 0.29261681 0.77700001 4284179034
-0.021159332 0.29299343 0.77800006 4284376413
-0.020424791 0.29299343 0.77800006 4284310620
-0.019740868 0.29374662 0.78000003 4284113241
-0.019028803 0.29412317 0.78100002 4284047448
-0.018291431 0.29412317 0.78100002 4284113241
-0.017599011 0.2948764 0.78300005 4284047448
-0.016859749 0.2948764 0.78300005 4283915862
-0.01612049 0.2948764 0.78300005 4283850069
-0.015400871 0.29525298 0.78400004 4283850069
-0.014660666 0.29525298 0.78400004 4283784276
-0.01392046 0.29525298 0.78400004 4283850069
-0.013197067 0.29562959 0.78500003 4283850070
-0.012455917 0.29562959 0.78500003 4283718484
-0.011714768 0.29562959 0.78500003 4283587155
-0.010987597 0.29600617 0.78600001 4283653204
-0.010258539 0.29638278 0.78700006 4283653461
-0.0095155006 0.29638278 0.78700006 4283718998
-0.0087947566 0.29713598 0.78900003 4283784277
-0.070265576 0.29636922 0.78500003 4284112988
-0.0693473 0.29561415 0.78300005 4284310367
-0.068257548 0.29410395 0.77900004 4284770661
-0.067435384 0.29372644 0.77800006 4285297262
-0.066615112 0.29334888 0.77700001 4285428848
-0.065796725 0.29297134 0.77600002 4285297262
-0.06506408 0.29297134 0.77600002 4285297262
-0.064331427 0.29297134 0.77600002 4285363055
-0.063598774 0.29297134 0.77600002 4285363055
-0.062866122 0.29297134 0.77600002 4285363055
-0.062133469 0.29297134 0.77600002 4285297262
-0.061400812 0.29297134 0.77600002 4285297262
-0.060668159 0.29297134 0.77600002 4285231469
-0.059935506 0.29297134 0.77600002 4285297262
-0.059202854 0.29297134 0.77600002 4285363055
-0.058394857 0.29259381 0.77500004 4285363057
-0.057663146 0.29259381 0.77500004 4285297264
-0.057004899 0.29297134 0.77600002 4285231471
-0.056199729 0.29259381 0.77500004 4285231471
-0.055468023 0.29259381 0.77500004 4285297263
-0.05480694 0.29297134 0.77600002 4285297263
-0.054004606 0.29259381 0.77500004 4285231471
-0.053272899 0.29259381 0.77500004 4285231471
-0.052541189 0.29259381 0.77500004 4285297262
-0.051809482 0.29259381 0.77500004 4285165676
-0.051011864 0.29221627 0.77400005 4285099883
-0.050216138 0.29183874 0.77300006 4285165676
-0.04948632 0.29183874 0.77300006 4285231469
-0.048756499 0.29183874 0.77300006 4285231469
-0.047964551 0.2914612 0.77200001 4285297262
-0.047296859 0.29183874 0.77300006 4285297262
-0.046567041 0.29183874 0.77300006 4285363056
-0.04583722 0.29183874 0.77300006 4285363056
-0.045107402 0.29183874 0.77300006 4285363057
-0.04437758 0.29183874 0.77300006 4285494643
-0.043704227 0.29221627 0.77400005 4285428849
-0.042973462 0.29221627 0.77400005 4285428849
-0.042297278 0.29259381 0.77500004 4285494643
-0.041565567 0.29259381 0.77500004 4285494643
-0.040833861 0.29259381 0.77500004 4285363057
-0.040050406 0.29221627 0.77400005 4285165678
-0.039319642 0.29221627 0.77400005 4285297264
-0.038539022 0.29183874 0.77300006 4285626229
-0.037809204 0.29183874 0.77300006 4285494643
-0.037031416 0.2914612 0.77200001 4285363057
-0.03630254 0.2914612 0.77200001 4285297262
-0.035573665 0.2914612 0.77200001 4285428848
-0.03484479 0.2914612 0.77200001 4285692020
-0.034115914 0.2914612 0.77200001 4285823606
-0.033387039 0.2914612 0.77200001 4285692020
-0.032615855 0.29108363 0.77100003 4285626227
-0.031887926 0.29108363 0.77100003 4285757812
-0.031159993 0.29108363 0.77100003 4286021241
-0.030392593 0.2907061 0.77000004 4286218363
-0.029665604 0.2907061 0.77000004 4285955191
-0.028938618 0.2907061 0.77000004 4285758067
-0.028211631 0.2907061 0.77000004 4285692274
-0.027520336 0.29108363 0.77100003 4285363309
-0.026827155 0.2914612 0.77200001 4285165930
-0.026132084 0.29183874 0.77300006 4284836965
-0.025402265 0.29183874 0.77300006 4284376414
-0.02473628 0.29259381 0.77500004 4284113242
-0.024004571 0.29259381 0.77500004 4284113242
-0.023302894 0.29297134 0.77600002 4284113241
-0.022599326 0.29334888 0.77700001 4284113241
-0.021865731 0.29334888 0.77700001 4284244827
-0.021159332 0.29372644 0.77800006 4284310620
-0.020424791 0.29372644 0.77800006 4284376413
