# .PCD v0.7 - Point Cloud Data file format
VERSION 0.7
FIELDS x y z
SIZE 4 4 4
TYPE F F F
COUNT 1 1 1
WIDTH 1250
HEIGHT 1
VIEWPOINT 0 0 0 1 0 0 0
POINTS 1250
DATA ascii
-0.024150357 0.0048482148 0.025545022
-0.046567872 0.00016789627 -0.018040126
-0.028063279 0.0001670723 0.012939952
-0.050452732 0.033311881 -0.058856525
-0.042259432 0.00016858292 -0.021803264
-0.026666677 0.00016774749 0.0037480239
-0.011590144 0.00016741562 0.028328231
-0.049018241 0.00016929055 -0.046228878
-0.035827853 0.00016947175 -0.025180757
-0.022519164 0.00016862869 -0.0039430619
-0.010428029 0.00016827011 0.015038681
-0.050392069 0.0037263297 -0.067824356
-0.035883591 0.00017041016 -0.041120667
-0.019542802 0.00017058563 -0.01448143
0.0031093769 0.0001702671 0.023674423
-0.041457184 0.00017117501 -0.064520121
-0.029694745 0.0001713848 -0.046379741
-0.020611033 0.00017157555 -0.033171736
-0.012141947 0.0001717987 -0.0211205
0.011455335 0.025621016 -0.010601196
0.014379397 0.014611518 0.003535385
0.013753223 0.00017185594 0.015728073
-0.041052353 0.00017283058 -0.091722846
-0.033156402 0.00017304994 -0.080923945
-0.025183087 0.00017325211 -0.070019208
-0.017131248 0.00017347718 -0.059007101
-0.0090003731 0.00017255402 -0.047885664
-0.00078804494 0.00017277908 -0.036654063
0.0075067417 0.0001735859 -0.025310308
0.015884068 0.00017322159 -0.013852405
0.024346802 0.00017402839 -0.0022789459
0.033644982 0.00017366791 0.010784907
-0.022529697 0.00017530441 -0.10000066
-0.011804938 0.00017496108 -0.084449582
-0.00096883869 0.00017518616 -0.06873785
0.0099804988 0.00017603111 -0.052862726
0.021044962 0.00017748642 -0.036821492
0.033001609 0.00017591858 -0.019187337
0.04586776 0.00017556382 6.3911437e-05
-0.0038818922 0.00017668343 -0.099663161
0.01296863 0.00017755509 -0.073263839
0.032398771 0.00017844772 -0.042193182
0.00080252934 0.00017835427 -0.10909046
0.028609391 0.00017990112 -0.062844642
0.012048839 0.00017853545 -0.1025365
0.049468584 0.0001794548 -0.038859162
0.013921494 0.00018032074 -0.11855046
0.033157773 0.00018223572 -0.09341608
0.048248108 0.00018517685 -0.091988906
0.0095642265 0.06504672 -0.11978215
0.023053382 0.054324239 -0.11754826
-0.0026593001 0.054045696 -0.11978574
-0.016851157 0.053338408 -0.11978513
-0.029347602 0.069459155 -0.10949956
-0.031887583 0.06815619 -0.10695256
-0.017895775 0.036814321 -0.11979187
-0.0081342757 0.028503498 -0.11979606
0.004991903 0.01956762 -0.11980014
0.020670341 0.010331703 -0.11980291
0.037944369 0.024980534 -0.10261007
-0.016364902 0.014640344 -0.11980095
0.00688797 0.0039110677 -0.11980641
0.030328318 0.0060326844 -0.11015572
-0.017602084 0.0044616754 -0.11980505
0.010678181 0.00015414048 -0.1141974
0.040857054 0.0060368939 -0.099652037
-0.005087663 0.00015664101 -0.11259799
0.030127719 0.00015576363 -0.10185635
-0.014073426 0.00015854262 -0.10934663
0.026973149 0.00015731431 -0.097220346
-0.015774202 0.00016016769 -0.10432005
0.027589753 0.00015893937 -0.091529757
-0.014918996 0.00016187478 -0.098485872
0.032270435 0.00016026497 -0.084703036
-0.0099516669 0.00016329956 -0.091498137
0.041339204 0.00016205788 -0.076648802
-0.00054148457 0.0001643982 -0.083264142
-0.043178331 0.00016597366 -0.089999795
0.012248078 0.00016555213 -0.073979169
-0.032899026 0.00016677476 -0.081117824
0.022820268 0.00016635131 -0.06478294
-0.025002312 0.00016846275 -0.072347067
0.026439425 0.00016849708 -0.056629322
-0.025813103 0.00017025757 -0.064974949
0.020919891 0.00017077256 -0.049939357
-0.036125153 0.00017440032 -0.05912596
0.005412315 0.0001750145 -0.044846475
0.043775436 0.00017425347 -0.030995563
-0.021039333 0.00017528725 -0.041512284
0.011219637 0.00017691802 -0.028548906
0.039715633 0.00017811966 -0.016094849
-0.034048978 0.00018174361 -0.028129255
-0.012781861 0.00018515778 -0.016729118
0.00091858365 0.012800135 0.015700135
0.0007329557 0.0082084509 0.01570865
-0.015843038 0.00018926049 0.0055639041
0.0074471096 0.00019240189 0.023219047
-0.016025051 0.06830243 -0.12014194
-0.027518835 0.070220701 -0.11173435
-0.011401761 0.051012509 -0.12012754
-0.032708768 0.061553597 -0.10655377
-0.043884121 0.070790723 -0.095338061
-0.04671289 0.068097472 -0.092510313
-0.042369246 0.056183778 -0.096887559
-0.033911981 0.039796494 -0.10539557
-0.023047581 0.021468844 -0.11631777
-0.0091854846 0.015568438 -0.12009589
0.0096563781 0.016723979 -0.12010153
-0.04736466 0.037078515 -0.091924332
-0.02361658 0.0066575892 -0.11577927
-0.0019847171 0.0028839093 -0.12008651
0.041655421 0.036408149 -0.099368118
-0.021722874 0.00015321732 -0.11347202
0.008997662 0.00015575791 -0.11669977
-0.035637669 0.0025093632 -0.10374626
-0.0018632601 0.00015655326 -0.10946534
-0.045705494 0.0056849499 -0.093654558
-0.0056493492 0.00015774535 -0.10346526
-0.049042545 0.0025963211 -0.090318218
-0.0031286534 0.00015974426 -0.09852054
-0.044621479 0.00015893555 -0.087973706
0.0035191562 0.00016184236 -0.094156623
-0.037646644 0.00016064453 -0.083580136
0.014620332 0.00016405105 -0.090419434
-0.026161781 0.00016205978 -0.079817697
0.030535728 0.00016517067 -0.087361053
-0.011214713 0.00016515733 -0.076439932
0.045893181 0.0001675949 -0.083829895
0.00019979691 0.00016761017 -0.071960643
-0.046356 0.00016636276 -0.059868913
0.0032775593 0.00016976165 -0.065344855
-0.0476337 0.00016850472 -0.052204169
-0.0011812175 0.00017205047 -0.056723796
0.045575481 0.00017350769 -0.061100326
-0.012278646 0.00017220879 -0.04624844
0.029212248 0.00017603111 -0.049183574
-0.03392636 0.00017425918 -0.033051942
0.0017305436 0.00017871094 -0.034396291
0.033815127 0.0001799469 -0.034731399
-0.037982844 0.00017861747 -0.016455829
-0.01456858 0.00018040847 -0.014543208
0.0109727 0.014249189 0.01164875
0.018898945 0.00018528747 -0.0069535105
0.015713332 0.0019827536 0.0048843538
-0.010574113 0.00018842888 0.01523333
0.022526573 0.0001930771 0.026047761
-0.0082257334 0.053130377 -0.12063558
-0.022757916 0.048152246 -0.11696024
-0.012331726 0.014357338 -0.12061974
0.01770322 -0.00054433628 -0.12061378
0.0076364041 -0.00086569786 -0.11816107
0.0051352177 -0.00086499023 -0.1155756
0.010360514 -0.00086474989 -0.11294492
0.022210911 -0.00086450006 -0.11026768
-0.044403009 0.037763465 -0.095304869
-0.014565142 -0.00086364179 -0.10616162
0.013360849 -0.00086337083 -0.10336242
-0.037580423 -0.00086323742 -0.10194373
-3.8299044e-09 -0.00086248014 -0.099067114
0.045111489 -0.00086219405 -0.096137434
0.0013733673 -0.00086153985 -0.094651923
-0.041393686 -0.00086190988 -0.093153
0.01671366 -0.0008616104 -0.090112254
-0.02239049 -0.00086147309 -0.088570267
0.036732692 -0.00086116407 -0.085442029
-0.0056784018 -0.00085997197 -0.083854817
-0.048499294 -0.00086033053 -0.082253076
0.0086422134 -0.00085948949 -0.079001889
-0.034738202 -0.0008598633 -0.077352829
0.017541056 -0.00085953716 -0.074005127
-0.029380526 -0.00085936161 -0.072306298
0.023740625 -0.000859024 -0.068857417
-0.023860523 -0.00085885811 -0.067106865
0.024104057 -0.00085796166 -0.063551798
-0.027256126 -0.00085777091 -0.061747093
0.021418858 -0.00085741997 -0.058081597
-0.030757731 -0.00085722923 -0.056220211
0.012432572 -0.00085684779 -0.052438658
-0.043744586 -0.00085551647 -0.050517034
-9.6888164e-10 -0.00085455133 -0.046613369
0.041498147 -0.00085471151 -0.042626191
-0.019257009 -0.00085510442 -0.040600356
0.019468609 -0.00085469242 -0.036480956
-0.042415332 -0.00085327716 -0.034386113
-0.0065983152 -0.00085344131 -0.030128742
0.026691562 -0.00085237314 -0.025774101
-0.040264972 -0.00085154147 -0.023559391
-0.0067879083 -0.00085230824 -0.019055866
0.020600639 -0.00085057644 -0.014445256
0.048633613 -0.00085008238 -0.0097273719
-0.024460794 -0.00084918784 -0.0073259049
1.8921413e-09 0.015554828 0.014784539
0.017895455 -0.00084878725 0.002567688
0.016303573 -0.00084757421 0.0076976395
-0.011004101 -0.00084634591 0.01295507
-0.001868839 -0.0008454647 0.021089615
-0.012151339 -0.00098039047 -0.11917643
-0.030370545 -0.00098000339 -0.10423137
0.0041297674 -0.00097961805 -0.11933486
0.0044202008 -0.00097955321 -0.11639261
0.014444724 -0.00097948452 -0.11897986
-0.037209857 -0.00097916031 -0.087890625
-0.016289104 -0.00097967149 -0.096654817
0.0073076873 -0.00097901537 -0.10691521
-0.040082056 -0.00097868347 -0.078221843
-0.010219676 -0.00097919081 -0.092012189
0.022445019 -0.00097853085 -0.1073696
-0.021763511 -0.00097878266 -0.080451608
0.017381696 -0.00097871781 -0.099459752
-0.024662916 -0.00097836298 -0.073751785
0.01857521 -0.00097830384 -0.09504544
-0.021255363 -0.00097855763 -0.070575804
0.02872763 -0.00097848894 -0.095668659
-0.0088299997 -0.00097813609 -0.072470054
-0.046586365 -0.00097778894 -0.049148705
0.010247355 -0.0009777107 -0.07808125
-0.023877461 -0.00097797392 -0.056806516
0.038739167 -0.00097789383 -0.088985696
0.0057206564 -0.00097752945 -0.068313934
-0.026167706 -0.00097719568 -0.04827803
0.042375721 -0.00097772223 -0.083765119
0.010327408 -0.0009767341 -0.063607849
-0.02189588 -0.00097700313 -0.043341048
0.046092223 -0.00097692106 -0.078430101
0.012368437 -0.00097719568 -0.057275444
-0.021540847 -0.00097682385 -0.036004134
0.044513296 -0.0009767341 -0.069905147
0.0090629105 -0.00097573095 -0.047721408
-0.025233451 -0.00097663491 -0.026187096
0.038821045 -0.00097589678 -0.058859408
0.0015929795 -0.00097617152 -0.03561724
-0.03447748 -0.00097579573 -0.01302488
0.027500341 -0.00097568892 -0.044422217
-0.010182589 -0.00097597885 -0.020875167
0.046918668 -0.00097521406 -0.049417619
0.0034053109 -0.00097548869 -0.022505118
-0.040357806 -0.00097511866 0.004562275
-0.017836429 -0.00097432703 -0.0041318857
0.010589384 -0.00097556302 -0.016151832
0.0407671 -0.00097410771 -0.02912141
-0.015169837 -0.0009743938 0.0049854089
0.012837218 0.019533185 0.0085846018
0.025613729 -0.00097348215 -0.0095719034
0.036229968 -0.00097335438 -0.011188297
0.041144304 -0.00097324373 -0.0094940942
0.038787335 -0.0009731293 -0.0035917815
0.026076222 -0.00097369385 0.0082800668
0.043933131 -0.00097245601 0.0051031038
-0.04613075 0.062467664 -0.094291791
-0.047520433 0.032615267 -0.092837445
-0.037275448 0.030591141 -0.1030843
-0.049586993 0.03266957 -0.072793797
-0.036438648 0.0068527414 -0.10386983
-0.041469891 0.00016640664 -0.093420073
-0.037040148 0.00016674423 -0.095752083
-0.026047921 0.0001670723 -0.1099885
-0.049626641 0.0041306955 -0.060735077
-0.03054985 0.00016758346 -0.092747197
-0.049621094 0.0049842149 -0.050701827
-0.021187168 0.00016862106 -0.10062651
-0.037857477 0.00016828536 -0.06699115
-0.049603313 0.011280357 -0.031981442
-0.010112097 0.00016882706 -0.10816079
-0.021587331 0.00016954422 -0.083912037
-0.032484554 0.00016972542 -0.060691096
-0.042107753 0.00016991424 -0.039770346
-0.049600653 0.0080779698 -0.014347946
0.0017049341 0.00016996574 -0.10978831
-0.005836518 0.00017015457 -0.092549458
-0.012041384 0.00017089462 -0.077722393
-0.017598236 0.00017163658 -0.064047568
-0.022497974 0.0001718483 -0.051541787
-0.026731033 0.00017150307 -0.040222108
-0.030286971 0.00017226601 -0.030105133
-0.033877835 0.00017248154 -0.019889729
-0.03750388 0.00017269516 -0.0095742298
-0.041893743 0.00017347909 0.0021756173
0.02201432 0.0001733532 -0.10719328
0.017116655 0.00017357446 -0.094403148
0.011426453 0.00017322159 -0.080125466
0.0056792307 0.00017343902 -0.065703616
-0.00087678339 0.00017366982 -0.049762484
-0.0074989935 0.00017507172 -0.033658262
-0.014190421 0.00017413331 -0.017390003
-0.021711349 0.00017613792 0.00044174196
-0.029311618 0.0001751938 0.018456254
0.031107074 0.0001768837 -0.083720185
0.022108993 0.00017713927 -0.063016139
0.012233514 0.00017739869 -0.04066208
0.0022514921 0.00017519759 -0.0180717
0.00010540323 0.014256328 0.014551468
-0.018030308 0.00017694091 0.027840415
0.03677405 0.00017934418 -0.063419774
0.020191154 0.00017835236 -0.028512454
0.0035415967 0.0042885169 0.014265542
0.035867985 0.00017982483 -0.043169253
0.0083011631 0.00037083434 0.012415187
0.026182229 0.00017937852 -0.010955757
0.031931303 0.00017996407 -0.01153294
0.025850395 0.00018122482 0.0097631263
0.036460288 0.00018147087 0.0060550729
0.031676553 -0.0009800758 -0.1065176
0.034506254 -0.00098025892 -0.10034148
0.018752603 -0.00098019792 -0.10626332
0.01252459 -0.00098014448 -0.10671294
0.017181711 -0.00098007009 -0.10091327
0.032888401 -0.00097940641 -0.088769868
-0.018028056 -0.00097908976 -0.11625846
0.0037788614 -0.00097959512 -0.10058209
0.02952229 -0.00097952655 -0.0826241
-0.01832973 -0.00097861479 -0.10832097
0.012489326 -0.00097913179 -0.087413438
0.046134766 -0.00097845274 -0.064856969
0.0027357521 -0.00097871013 -0.087967627
0.042912588 -0.00097803306 -0.061627924
0.00043256665 -0.00097829243 -0.084187225
0.044734992 -0.0009782085 -0.055437505
0.0057562348 -0.0009784851 -0.075969711
-0.03342817 -0.00097813224 -0.096610069
0.018888574 -0.00097867206 -0.063209184
-0.017991761 -0.00097832107 -0.08250545
0.040017355 -0.00097762304 -0.04579597
0.0054994295 -0.00097789383 -0.063714355
-0.027899418 -0.00097752945 -0.080983572
0.037241451 -0.00097745319 -0.040122889
0.0049725515 -0.00097772595 -0.056717377
-0.026152894 -0.0009773788 -0.072648428
0.041034974 -0.00097664457 -0.030538192
0.0070933127 -0.00097691722 -0.048047803
-0.025701296 -0.00097719568 -0.064891852
0.040890299 -0.00097645569 -0.023039635
0.007916864 -0.00097736553 -0.039954673
-0.026587775 -0.00097700884 -0.057733137
0.038031142 -0.00097626692 -0.016922435
0.0033210344 -0.00097654725 -0.034786049
-0.032947548 -0.00097552111 -0.053528212
0.030994657 -0.00097607804 -0.01301651
-0.0068780272 -0.00097634317 -0.032642074
-0.046344887 -0.00097532274 -0.053166151
0.00854511 -0.00097654725 -0.017734692
-0.035388391 -0.00097483059 -0.040775068
0.00045896936 -0.00097538752 -0.016150814
0.028281379 -0.00097529031 0.0039376412
-0.037394211 -0.00097421266 -0.031463198
-0.013073991 0.026649684 0.006208031
0.017196354 -0.00097467611 0.0083084907
-0.045185391 -0.00097359659 -0.02514792
-0.031373922 -0.00097348017 -0.012862419
-0.023191787 -0.00097473525 -0.0037413216
-0.022198781 -0.00097393419 0.0013279876
-0.027058046 -0.00097381976 0.0031079941
-0.048202027 -0.00097299571 -0.0043586921
-0.037978731 -0.00097245409 0.0085045621
0.03999627 0.0673417 -0.099633954
0.050462585 0.046537608 -0.07675714
0.024608096 0.050154764 -0.11503781
0.04859994 0.0010036698 -0.09110181
0.030716771 0.014964111 -0.10896635
0.024303902 0.013683598 -0.11537937
0.030611703 0.00016673279 -0.1075125
0.037720382 0.00016758156 -0.088634141
0.050380014 0.0041178511 -0.056289136
0.027921135 0.000168087 -0.097555824
0.050381742 0.0026054019 -0.048204482
0.031177182 0.00016862489 -0.082350463
0.013104059 0.00016828919 -0.11227582
0.048699759 0.000169693 -0.040791713
0.034527354 0.00016987228 -0.063493751
0.020224648 0.00016953278 -0.086404987
0.0071586431 0.00016920471 -0.10702364
0.050408803 0.0051994873 -0.015915435
0.040801059 0.00017084312 -0.035435371
0.031072557 0.00017049408 -0.049823578
0.021251431 0.00017124176 -0.064347722
0.012041673 0.00017035104 -0.07772249
0.0041581173 0.00017054749 -0.088636614
-0.0038015642 0.00017130279 -0.099655621
-0.011123545 0.00017150688 -0.10947444
-0.017798878 0.00017171669 -0.11807555
0.041127369 0.00017325973 -0.0029445838
0.034610871 0.00017291259 -0.011148636
0.027297784 0.00017313575 -0.020772476
0.019912537 0.00017219924 -0.030492555
0.011712803 0.00017415047 -0.041660853
0.0034325724 0.000172657 -0.052942701
-0.0049325391 0.00017343902 -0.064337596
-0.01413351 0.00017483902 -0.077221081
-0.023427552 0.00017508316 -0.090236232
-0.033575021 0.00017530823 -0.10477182
0.02165084 0.00017637634 0.0044432371
0.010810788 0.00017424392 -0.011236656
-0.00091825298 0.00017509078 -0.028494725
-0.013550149 0.00017774582 -0.047357328
-0.025531907 0.0001780014 -0.064989559
-0.038426928 0.00017764664 -0.084247991
0.014056134 0.0001769371 0.020569939
-0.011654261 0.018359326 0.010451248
-0.016686659 0.00017871856 -0.026672404
-0.035541005 0.00017897796 -0.0565928
-0.00036459303 0.00018080139 0.017058617
-0.02765429 0.00017917823 -0.028144112
-0.0092378892 0.00018038558 0.015158867
-0.046228226 0.00018003845 -0.047627188
-0.046292901 0.00018061638 -0.037805106
-0.026194638 0.00018151283 0.014307022
-0.046495494 0.00018178939 -0.0069453469
0.036777485 0.079968624 -0.07905966
0.029280743 0.079965398 -0.10217176
0.021903194 0.079963818 -0.10838173
0.009535755 0.079961412 -0.077068694
0.048943277 0.03998642 -0.017202523
0.0018683948 0.079958707 -0.089657068
0.044228841 0.039984062 -0.043451585
0.031732112 0.039982386 -0.0015735893
-0.001617159 0.079957657 -0.11784782
-0.0078158528 0.079956077 -0.099989593
-0.013902257 0.07995522 -0.082457408
-0.019586014 0.079954751 -0.066583611
0.021423489 0.039978184 -0.04063401
0.014663719 0.039975356 -0.023155794
0.0158251 0.032655835 -0.0021085434
0.0075920722 0.034400366 0.012630051
-0.0037648589 0.039976053 0.022157487
-0.023334568 0.079951897 -0.11561428
-0.026915699 0.079951145 -0.10803483
-0.030436885 0.079950407 -0.10058224
-0.033899955 0.079950005 -0.093253359
-0.037305661 0.079949297 -0.086045191
-0.040656053 0.079948895 -0.078954741
-0.043951876 0.079948209 -0.07197915
-0.047714911 0.079947829 -0.06273561
-0.015131496 0.039968964 -0.042446442
-0.020854639 0.039967116 -0.026889458
-0.026489943 0.039967574 -0.011577478
-0.032037891 0.03996861 0.0034955177
-0.027541205 0.058492355 -0.11286426
-0.047772132 0.074366257 -0.092565618
-0.049697671 0.070512637 -0.075955614
-0.030477658 0.039964747 -0.05291928
-0.037735369 0.039964102 -0.029107649
-0.044886701 0.039964564 -0.0056481743
-0.038589399 0.053514637 -0.1018093
-0.049685728 0.058469482 -0.076745711
-0.043707423 0.039962143 -0.04682057
-0.049650155 0.036143504 -0.015068399
-0.042671032 0.046157643 -0.097737521
-0.049668804 0.043913476 -0.066263907
-0.04964653 0.029219907 -0.026966676
-0.039335035 0.032364611 -0.10110925
-0.049656536 0.032307405 -0.061912887
-0.049629845 0.013739565 -0.014356121
-0.049660333 0.03079015 -0.081539892
-0.049629543 0.009737852 -0.029544607
-0.049644537 0.017484169 -0.068338886
-0.049636297 0.0095141213 -0.063570015
-0.049639311 0.0068221018 -0.089866698
0.040102459 0.079972617 -0.070595577
0.027722338 0.07997153 -0.079672888
0.011600349 0.07996843 -0.10898788
0.011124371 0.079967424 -0.08306776
0.010000307 0.079964466 -0.061294816
-0.010309709 0.079963334 -0.11590564
-0.014146274 0.079961739 -0.10915647
-0.01814766 0.07996057 -0.10409962
0.046789277 0.039983369 -0.046963584
-0.021132728 0.079958916 -0.08434923
0.020255571 0.050386965 -0.061032318
0.038759854 0.039980907 -0.024060911
-0.034232199 0.079956129 -0.1025932
-0.030974949 0.079955995 -0.077714488
-0.0011158962 0.056381453 -0.060944069
0.020980783 0.039975177 -0.036811013
0.024069928 0.039977524 -0.0096409526
0.027109956 0.039976049 0.017058197
-0.045094166 0.079952225 -0.086134776
-0.043576639 0.079952456 -0.070367128
-0.033221088 0.070459075 -0.06079451
-0.0017306594 0.039972071 -0.054236989
-0.00046281773 0.0399707 -0.036887601
0.0007843232 0.039969362 -0.019821445
0.015367197 0.027321914 0.00013290405
0.0039321184 0.039969102 0.016766112
-0.048676506 0.065297998 -0.092114076
-0.050001204 0.068976082 -0.073732868
-0.040786535 0.060082532 -0.060805373
-0.021320732 0.039966792 -0.046409294
-0.018967096 0.039967254 -0.025625825
-0.016648799 0.039967142 -0.0051588365
-0.014364012 0.03996538 0.014999352
-0.045243073 0.043042574 -0.095644325
-0.050007511 0.05319212 -0.070273705
-0.037564926 0.039963942 -0.053824682
-0.034564156 0.039963868 -0.031077871
-0.031605911 0.039962731 -0.0086597102
-0.028051484 0.039962146 0.016362472
-0.050015163 0.036988907 -0.077140898
-0.047715213 0.039961435 -0.048145209
-0.042904865 0.039960358 -0.017857833
-0.03486057 0.035979956 0.014301918
-0.050017565 0.027894462 -0.063839763
-0.050011147 0.037676942 -0.025422001
-0.035689831 0.026185479 0.013446542
-0.050020687 0.019024517 -0.056382567
-0.050012909 0.031179989 -0.013214706
-0.05002705 0.0064795078 -0.065821454
-0.046740681 0.022917425 0.002409603
-0.035386857 0.0013075828 0.013678154
-0.05002179 0.0068581924 -0.0058265571
0.029189875 0.080643281 -0.074286707
0.011975344 0.080636814 -0.079356112
-0.0030366259 0.080631167 -0.099353328
-0.012020772 0.080627635 -0.070487507
-0.024200257 0.080623493 -0.112999
-0.031564061 0.080619968 -0.094437324
-0.038402427 0.080617279 -0.07458964
0.044886731 0.04065685 -0.059340976
0.039932124 0.040655699 -0.0063290941
-0.050866205 0.079343364 -0.090230942
-0.050866015 0.077988349 -0.067052379
0.021697368 0.040647738 -0.045353763
0.01749081 0.0406482 -0.019202176
0.014121538 0.040283285 0.0026424255
0.0094730472 0.040642846 0.021634292
-0.03336332 0.059985615 -0.10830196
-0.050864704 0.068131365 -0.089223012
-0.050864924 0.066667959 -0.07790751
-0.050864737 0.065189831 -0.066480093
-0.011915895 0.040634692 -0.057729721
-0.015138062 0.040633261 -0.044494435
-0.018273685 0.040632274 -0.031617377
-0.021326175 0.0406317 -0.020683467
-0.02429698 0.040630355 -0.010037487
-0.027191138 0.040629454 0.00033143235
-0.030010968 0.04062856 0.011971607
-0.022152763 0.031521454 -0.11961994
-0.043577604 0.044480242 -0.098084696
-0.050862022 0.04790869 -0.083669297
-0.050862242 0.046238802 -0.070184782
-0.045515664 0.040621892 -0.055349074
-0.047886647 0.040620811 -0.039780382
-0.050202448 0.040619768 -0.024574146
-0.050861787 0.039378747 -0.0078225369
-0.029433101 0.020761536 0.020505646
-0.04678845 0.030724347 -0.094893202
-0.050860386 0.032216437 -0.07530202
-0.050860167 0.0303765 -0.053933389
-0.050859906 0.028516099 -0.032327332
-0.050859667 0.026634926 -0.010479866
-0.02389909 0.0009351616 0.025966292
-0.050858904 0.020863129 -0.077602431
-0.050858639 0.01889522 -0.045135774
-0.050857913 0.016904254 -0.0078222845
-0.050857853 0.012854206 -0.073694013
-0.050857089 0.010792959 -0.026788995
-0.050856542 0.0065982244 -0.072560474
-0.050855767 0.0044629024 -0.013999892
-0.0094734002 0.080385193 -0.10553785
-0.051101595 0.07989087 -0.070563398
-0.025407916 0.075524978 -0.060676016
-0.033315308 0.071078405 -0.10848282
-0.051104199 0.070598766 -0.082169391
-0.051103227 0.068301335 -0.064246342
0.035866998 0.052910596 -0.06097706
-0.051105887 0.061030585 -0.085690781
-0.051105283 0.05886073 -0.065984122
-0.045641914 0.053993694 -0.096108854
-0.050992917 0.054901205 -0.060590405
0.010935606 0.040394176 -0.041623987
0.0068990192 0.040388923 -0.016126186
0.012965709 0.037933707 0.0053681796
-0.0017404413 0.040386688 0.021671711
-0.037507288 0.041056104 -0.10430719
-0.051108815 0.044036321 -0.085445926
-0.051108114 0.043110192 -0.073796496
-0.051107954 0.042200893 -0.062356561
-0.04809837 0.040368173 -0.051767845
-0.050687373 0.040365495 -0.038775474
-0.051104825 0.039705537 -0.026568193
-0.051103629 0.038928535 -0.014660602
-0.051102944 0.038167108 -0.0029891396
-0.040172383 0.03373275 0.010322376
-0.024210406 0.027487734 0.026226956
-0.047094248 0.025540192 -0.094686478
-0.051110942 0.026457787 -0.079128325
-0.051110648 0.025768017 -0.065809488
-0.051109225 0.025185514 -0.051340066
-0.051108342 0.024617085 -0.037214853
-0.051106881 0.024154 -0.022065304
-0.051105458 0.023702934 -0.0073090056
-0.041929338 0.019326035 0.0085559841
-0.03086983 0.0022982559 -0.11103737
-0.0511133 0.0124361 -0.078411289
-0.05111127 0.012574081 -0.055906028
-0.051109333 0.012706722 -0.034271676
-0.05110728 0.013051982 -0.01075322
-0.033949193 0.0050387001 0.016495464
-0.051113039 0.0037173461 -0.066620305
-0.051109593 0.0057679787 -0.024257917
-0.051109772 0.0026309814 -0.024167553
0.015382533 0.080024749 -0.060996484
-0.050234757 0.076406263 -0.090382822
-0.050222486 0.073867448 -0.075315699
-0.050211001 0.071494043 -0.061230309
-0.028527487 0.067059003 -0.060852122
0.0036294397 0.060979117 -0.060976028
0.047729302 0.052641056 -0.061144907
-0.05022819 0.058171619 -0.072814919
-0.042463981 0.054995216 -0.060813982
-0.023542535 0.048974212 -0.060889535
0.044450928 0.040082015 -0.012492104
-0.04040429 0.047098886 -0.060829908
-0.0020789742 0.040069755 -0.042252935
0.0086836964 0.039081015 -0.013523941
0.0093794959 0.039791323 0.011141403
-0.05025344 0.038202904 -0.090179197
-0.0502306 0.039557707 -0.064854138
-0.047970727 0.040052254 -0.043868896
-0.044401087 0.040049318 -0.02530925
-0.041040283 0.040046409 -0.007838035
-0.037289672 0.040044472 0.0097808568
-0.024160262 0.037307702 0.025298789
-0.050242018 0.027897153 -0.071190067
-0.050216425 0.030327115 -0.044366173
-0.050194107 0.032447319 -0.020961672
-0.049924187 0.034222938 -0.00044390108
-0.034575243 0.030523682 0.01488913
0.019013947 0.014032528 0.029089937
-0.050236613 0.018517327 -0.060536344
-0.050210647 0.021833936 -0.033166062
-0.050187718 0.024707574 -0.0094500734
-0.040508255 0.023226818 0.0089578861
-0.021637257 0.018360751 0.02780899
-0.050244093 0.0084076803 -0.062920555
-0.050215095 0.012851852 -0.033266582
-0.050185889 0.017519146 -0.0037572787
-0.026902447 0.012001633 0.022545235
-0.050209962 0.0085001104 -0.025394863
-0.028903473 0.0079635624 0.020543631
-0.045109123 0.0086376043 0.0043537789
-0.042900871 0.0052344971 0.006558334
-0.050195418 0.00017343902 -0.004602558
-0.035908557 0.077362552 -0.060864948
-0.023313332 0.077430919 -0.11783081
-0.04341333 0.066761211 -0.060832817
-0.02994209 0.067155421 -0.11115414
-0.050099462 0.058995314 -0.073574454
-0.027769944 0.058586039 -0.060899787
-0.023313332 0.056231797 -0.11783081
-0.050100327 0.04891229 -0.075194061
-0.031923704 0.04710326 -0.060881864
0.048224956 0.049068604 -0.061225295
-0.050075114 0.039316587 -0.013949181
-0.049323503 0.037874248 2.0095826e-05
-0.037101924 0.036868341 0.012216728
-0.023519 0.035750389 0.02577192
-0.05010473 0.032978602 -0.086782739
-0.050098337 0.031499486 -0.070361033
-0.050091751 0.030097777 -0.054798968
-0.050085507 0.028767545 -0.040030476
-0.050080072 0.027503472 -0.025996253
-0.05007441 0.026300725 -0.012643119
-0.049323503 0.025124725 2.0095826e-05
-0.037101924 0.023446204 0.012216728
-0.023519 0.021580711 0.02577192
-0.05010473 0.01818745 -0.086782739
-0.050098337 0.017105782 -0.070361033
-0.050091751 0.016080666 -0.054798968
-0.050085507 0.01510783 -0.040030476
-0.050080072 0.014183422 -0.025996253
-0.05007441 0.013303818 -0.012643119
-0.049323503 0.012375202 2.0095826e-05
-0.037101924 0.010024063 0.012216728
-0.023519 0.0074110301 0.02577192
-0.050102662 0.0036271648 -0.081761852
-0.050093632 0.003243475 -0.059381425
-0.050084502 0.0029596617 -0.037166633
-0.045787968 0.0030224819 0.003548794
0.0078162467 0.08038722 -0.10409616
-0.050874103 0.080309018 -0.07695692
-0.050872006 0.077673286 -0.061847616
-0.038814448 0.073358774 -0.10294573
-0.050873764 0.071816109 -0.087194525
-0.050871171 0.068996072 -0.072219267
-0.030386288 0.062935099 -0.11140947
-0.050352007 0.062982231 -0.091384992
-0.050869208 0.05996111 -0.073716737
0.030302504 0.040405922 -0.0042891731
-0.027756577 0.052426208 -0.11405711
-0.050870378 0.055255271 -0.090525679
-0.050867867 0.053313546 -0.073879071
-0.0061834184 0.040386047 -0.052063543
-0.015494496 0.040381987 -0.038398117
-0.023975248 0.040381789 -0.027189311
-0.032174051 0.040378474 -0.015120922
-0.039885834 0.040375177 -0.0037682001
-0.037085097 0.037247438 0.012727307
-0.02961272 0.03779944 -0.1122103
-0.044954099 0.040260889 -0.096821792
-0.050865836 0.040037852 -0.083491668
-0.05086391 0.037934467 -0.070209213
-0.050861407 0.035761483 -0.056488257
-0.050859075 0.033435073 -0.040866923
-0.050856136 0.031022007 -0.024664771
-0.050853085 0.028517529 -0.0078488803
-0.023450954 0.014647497 0.02624467
-0.038015757 0.024897318 -0.10379591
-0.050863486 0.027416233 -0.086669929
-0.050860979 0.024882238 -0.070441768
-0.050857835 0.022247622 -0.05357055
-0.050854839 0.01940305 -0.034527682
-0.050851148 0.016431896 -0.014638928
-0.033376243 0.0047172108 0.016364811
-0.043314323 0.014436354 -0.098492518
-0.050859232 0.014878698 -0.077598237
-0.050855469 0.011562124 -0.054927476
-0.050850917 0.0078213941 -0.027980423
-0.033068154 0.0021062889 -0.10878046
-0.050856315 0.0063457089 -0.067917928
-0.050848562 0.00071929547 -0.021408852
-0.04964526 0.079955377 -0.086795799
-0.020418487 0.079706468 -0.1199456
-0.033939876 0.074482046 -0.10639732
-0.046152662 0.069763258 -0.094160244
-0.049643379 0.067208327 -0.081465892
-0.049637716 0.065400228 -0.067668721
-0.027355561 0.062799044 -0.11299475
-0.040197674 0.058542598 -0.10012706
-0.04964561 0.055015158 -0.088112012
-0.049640574 0.052924775 -0.074653521
-0.020418487 0.050490111 -0.1199456
-0.033939876 0.046751365 -0.10639732
-0.046152662 0.043374445 -0.094160244
-0.049643379 0.040757332 -0.081465892
-0.049646445 0.038015712 -0.089421906
-0.049638089 0.036909916 -0.069079727
-0.049630947 0.035695016 -0.050161302
-0.04962277 0.034394767 -0.029913465
-0.049614005 0.03299984 -0.0081911506
-0.02599737 0.030069318 -0.11435574
-0.042615082 0.02882174 -0.097705223
-0.049643379 0.027531838 -0.081465892
-0.049636062 0.026033867 -0.063392334
-0.049628265 0.024433136 -0.044079032
-0.049619891 0.022718709 -0.023393871
-0.049610909 0.020878017 -0.0011853141
-0.031346969 0.01889248 -0.10899562
-0.047309149 0.018368619 -0.093001343
-0.049640942 0.016806316 -0.076029539
-0.049633477 0.014933568 -0.057587516
-0.049625501 0.012930994 -0.037866976
-0.049616937 0.010784599 -0.016730178
-0.019820079 0.0041092243 0.028800052
-0.036480576 0.0081656817 -0.10385133
-0.04964561 0.0079838168 -0.088112012
-0.049638089 0.0057999496 -0.069079727
-0.049629606 0.0033824712 -0.047136132
-0.049618416 0.00059789082 -0.020080332
0.037314583 0.080075666 -0.091042116
-0.04258284 0.078880668 -0.097501457
-0.032695625 0.076280028 -0.10739823
-0.022141829 0.07350415 -0.11796165
-0.049524888 0.072276041 -0.066182062
-0.049537577 0.07028015 -0.080603257
-0.047060806 0.068152599 -0.093024656
-0.038270559 0.065240368 -0.10182343
-0.029990843 0.06221192 -0.11011101
-0.021239009 0.059010781 -0.11887117
-0.049515449 0.057725191 -0.064398497
-0.025381733 0.055276431 -0.11472706
-0.046815671 0.055681329 -0.093275771
-0.049520522 0.052971721 -0.071952522
-0.012315222 0.040076021 -0.0210979
-0.031917319 0.040068135 -0.0015034752
-0.024929421 0.047058556 -0.11518344
-0.04070279 0.047321327 -0.099396758
-0.049524728 0.045835778 -0.080759831
-0.044508781 0.0400519 -0.052683063
-0.049466837 0.036624022 -0.027080437
-0.014120502 0.036641404 -0.12063875
-0.036317796 0.038705979 -0.10378917
-0.04952579 0.038507499 -0.086538993
-0.049500648 0.033719528 -0.062329896
-0.049467318 0.027861774 -0.032215361
0.00022317313 0.023339108 -0.12070143
-0.037076406 0.03045674 -0.10303394
-0.049517136 0.029635433 -0.082333341
-0.049486391 0.023447458 -0.053698234
-0.049448624 0.01605523 -0.019491836
-0.025787404 0.021403102 -0.11433558
-0.045162667 0.02331656 -0.094944313
-0.049499359 0.018828254 -0.070126519
-0.049462639 0.010921904 -0.036870185
-0.00068517303 0.0053039417 -0.12071539
-0.040820558 0.015329463 -0.099293001
-0.04949132 0.010604958 -0.066805229
-0.025077913 0.007629314 -0.11505149
-0.049488492 0.0059523201 -0.066739306
-0.049506091 0.0068525621 -0.084036484
-0.036058441 0.00080622861 -0.10406578
-0.05018441 0.065822214 -0.064834021
-0.050178714 0.058882166 -0.082012162
-0.050172281 0.052224584 -0.081015751
-0.050135992 0.027873853 -0.017955093
-0.050161082 0.041656669 -0.076063536
-0.050135303 0.024466222 -0.031274054
-0.045190785 0.017893095 0.004164692
-0.050150864 0.030712362 -0.076179065
-0.050133329 0.019059401 -0.045953169
-0.050117753 0.008918684 -0.019648675
-0.046269659 0.0051993029 0.0031164093
-0.043653186 0.032447297 -0.097398318
-0.05013185 0.013073415 -0.066192642
-0.050119776 0.0052408217 -0.045619737
-0.048502292 0.00015937423 -0.027167207
-0.043496966 0.00015954018 -0.012076889
-0.038416591 0.00015969467 0.003239746
-0.029255789 0.0044693872 0.020105151
-0.050126024 0.0026859017 -0.085233122
-0.047203243 0.00016278648 -0.069992408
-0.042538755 0.00016297912 -0.057208382
-0.037801005 0.00016318131 -0.044223581
-0.032988265 0.00016337968 -0.031033238
-0.028398242 0.00016358947 -0.019003658
-0.023733985 0.000164217 -0.0067805597
-0.018994514 0.0001644249 0.0056407126
-0.01448259 0.00016633797 0.016860683
-0.036432881 0.00016811371 -0.10296341
-0.032269605 0.00016879845 -0.093812123
-0.02803636 0.00016906738 -0.084505841
-0.023730967 0.0001693325 -0.075040936
-0.019673796 0.00017005348 -0.066890873
-0.015546726 0.00017033768 -0.058599282
-0.011675327 0.00017106629 -0.051665969
-0.0077360845 0.00017136955 -0.044610154
-0.0037240323 0.00017397499 -0.037429102
0.0003579988 0.00017476463 -0.030118603
0.0045128921 0.00017462349 -0.022675503
0.0090847015 0.00017259599 -0.013524456
0.015240684 0.0010485629 -0.0025027771
0.019541726 0.00017518234 0.010093094
-0.0034624529 0.00017786026 -0.12040035
0.004134411 0.00017874528 -0.09856905
0.012604329 0.00017914581 -0.072988287
0.021974167 0.00018006134 -0.043548696
0.032266222 0.00017842292 -0.010135854
0.018712448 0.00018238068 -0.1004738
0.031959403 0.00018176841 -0.054384865
0.046635427 0.00018116951 -0.0020524673
0.043445561 0.00018424988 -0.047334224
0.04876709 0.00018745041 -0.071469858
-0.049777046 0.060430683 -0.087036148
-0.049773671 0.059731923 -0.063636996
-0.049777567 0.050094802 -0.0635795
-0.049784549 0.037832584 -0.072819605
-0.040279619 0.034894198 -0.10033485
-0.030579289 0.040635258 -0.11007281
-0.049785938 0.028631028 -0.051261894
-0.032393582 0.030414367 -0.10822519
-0.04979565 0.014407093 -0.073235534
-0.049788188 0.022058876 -0.039430633
-0.049780544 0.03021884 -0.0028693047
-0.04980436 0.00082376291 -0.089427084
-0.049798995 0.0059504239 -0.063316815
-0.049793798 0.010781761 -0.037552509
-0.049788121 0.016069479 -0.0093543548
-0.0374576 0.0018843422 -0.1030678
-0.041483156 0.00016300583 -0.083259001
-0.043742057 0.00016279983 -0.064734071
-0.045746915 0.00016338538 -0.047243413
-0.047782779 0.00016398239 -0.029482191
-0.04926502 0.00016500283 -0.014122235
-0.022974219 0.035499487 0.02582084
-0.023003999 0.00016648675 -0.10781173
-0.023731047 0.00016713905 -0.095352486
-0.024165928 0.00016737558 -0.08408463
-0.024607493 0.00016804504 -0.072632536
-0.024747374 0.00016828728 -0.062408179
-0.024889136 0.00016897391 -0.052013777
-0.025034145 0.00016880226 -0.041445397
-0.02486524 0.00016775131 -0.032151237
-0.025011633 0.00016845322 -0.021233249
-0.024838289 0.00016872406 -0.011605106
-0.024659257 0.00017168236 -0.0018082429
-0.024482073 0.00016971208 0.0081567224
-0.024299476 0.00016998863 0.018299019
0.0097959656 0.00017197418 -0.11523788
0.010294781 0.00017275619 -0.10593805
0.010802713 0.00017354202 -0.096468076
0.01132004 0.00017436028 -0.08682318
0.01149724 0.00017518234 -0.075397298
0.011323461 0.00017504119 -0.062140279
0.01007909 0.00017637634 -0.043736313
0.0080912169 0.00017775345 -0.021684676
0.012573987 0.0060028285 0.00825716
0.034490563 0.00017944718 -0.10217343
0.029299373 0.00018089484 -0.064408422
0.023244809 0.00018028831 -0.02242299
0.015927503 0.00018387985 0.025662705
0.037849165 0.00018377304 -0.044668227
0.026909243 0.00018642616 0.020922599
0.044293676 0.00018689346 -0.010187415
-0.050958969 0.071779504 -0.070270978
-0.050957639 0.062773637 -0.066684887
-0.050956391 0.054191254 -0.087669462
-0.050955486 0.048014723 -0.082539096
-0.050954126 0.042049039 -0.080529951
-0.050953574 0.038183242 -0.033586729
-0.022964163 0.05831898 -0.11897892
-0.050952755 0.032544632 -0.073986575
-0.050952487 0.030706372 -0.043943144
-0.050952218 0.028888196 -0.015644707
-0.028714523 0.042802669 -0.11316421
-0.050951451 0.023550872 -0.080341019
-0.050951194 0.021809796 -0.060772441
-0.050950944 0.020087227 -0.042791117
-0.050950695 0.018382875 -0.026371863
-0.050950456 0.016696446 -0.011490032
-0.046542652 0.018156411 0.0036200143
-0.022529323 0.033200577 0.027506301
-0.042313099 0.015939059 -0.099439077
-0.05094884 0.0085238907 -0.084309794
-0.050948612 0.0069393194 -0.074879594
-0.050948381 0.0053708302 -0.065545075
-0.050948165 0.0038181685 -0.05630479
-0.050947942 0.0022811031 -0.047157302
-0.050948136 0.00075914955 -0.039397784
-0.050491989 -0.00047745131 -0.031649582
-0.047914397 -0.0004767628 -0.023498846
-0.045262508 -0.0004758072 -0.015114425
-0.042533491 -0.00047481727 -0.0064861602
-0.039722502 -0.00047301673 0.0010263748
-0.036829241 -0.0004722233 0.0087632863
-0.033067495 -6.0112001e-05 0.017085662
-0.027602986 -0.00046858977 -0.11225393
-0.024331765 -0.00046739387 -0.10730847
-0.020955224 -0.00046644593 -0.1022027
-0.017466975 -0.00046517566 -0.095400348
-0.013861363 -0.000463562 -0.086816177
-0.010133702 -0.00046220206 -0.077939741
-0.0062776813 -0.00046110153 -0.067147806
-0.0022851266 -0.00045964625 -0.054339312
0.0018498448 -0.00045846176 -0.037739959
0.0061373385 -0.00045657539 -0.020534363
0.01421722 0.0010249958 0.0017298965
0.01519566 -0.00045428466 0.026394967
0.024971036 -0.00045041466 -0.085833326
0.0301577 -0.0004467621 -0.034266569
0.041169491 -0.00044381712 -0.0782931
-0.050899275 0.079676457 -0.081412643
-0.050900061 0.074113205 -0.071087651
-0.050900705 0.06889791 -0.073887423
-0.045323845 0.065161131 -0.096548267
-0.050901581 0.061644666 -0.06509985
-0.050904173 0.054838996 -0.088890702
-0.026416982 0.060327441 -0.11550985
-0.050905086 0.047567192 -0.084467545
-0.027233472 0.051531773 -0.11468147
-0.050906558 0.040122263 -0.084172517
-0.050904501 0.039029114 -0.056442659
-0.050907604 0.034290846 -0.083941415
-0.050905578 0.03437436 -0.059275605
-0.050903141 0.034373097 -0.034903459
-0.050900262 0.034281258 -0.01095385
-0.028940832 0.033135727 -0.11294895
-0.048970886 0.025895178 -0.092848204
-0.050908856 0.024693592 -0.076926261
-0.050907709 0.024054462 -0.06202684
-0.050906707 0.023327727 -0.048142321
-0.050905354 0.022513524 -0.03536848
-0.050903995 0.021682033 -0.022323508
-0.050902598 0.020832706 -0.0089986566
-0.037602086 0.023963273 0.012258618
-0.03039524 0.017462168 -0.1114729
-0.044231839 0.013089029 -0.097588681
-0.050912015 0.010521103 -0.086849213
-0.050911464 0.0095777819 -0.076490998
-0.050910413 0.0086183306 -0.065954365
-0.050910018 0.0075953407 -0.056585621
-0.050909132 0.0065574022 -0.047078904
-0.050908733 0.0055039655 -0.037431333
-0.050907809 0.0044349022 -0.027639488
-0.050907385 0.0033496418 -0.017700452
-0.050906628 0.0022072257 -0.0090782167
-0.049613465 0.0012810249 0.0003520851
-0.027003948 0.0039587938 0.02282491
-0.011598225 -0.00019169427 -0.11407094
-0.0015632159 -0.00018615532 -0.10284312
0.0092039471 -0.00017990494 -0.086726166
0.018789416 -0.00017102623 -0.051816724
0.025614556 -0.00016387748 0.013943677
-0.038989991 0.075507537 -0.10119617
-0.049539905 0.070066079 -0.088742144
-0.04953102 0.069907211 -0.077978089
-0.049523365 0.069303393 -0.068256989
-0.04951844 0.067795858 -0.061531939
-0.0044094343 0.06983678 -0.12073804
-0.0060906173 0.065642662 -0.12072758
-0.0077283122 0.061555721 -0.12071729
-0.0093254745 0.057571292 -0.12070736
-0.010882306 0.053686135 -0.12069756
-0.0025811568 0.053585224 -0.12072818
0.018291591 0.057742588 -0.12080994
-0.049532782 0.042345092 -0.063719854
-0.049537521 0.038786117 -0.067019805
-0.049552847 0.033349462 -0.082350045
-0.022894805 0.033215985 -0.11728299
-0.049560271 0.028325543 -0.088024601
-0.04953108 0.031696521 -0.055680346
-0.049503982 0.034353375 -0.026521642
-0.013530033 0.027990926 -0.12066145
-0.036408905 0.022901099 -0.10375061
-0.0495627 0.020471646 -0.086493865
-0.049541518 0.022059282 -0.062506266
-0.049516626 0.023889808 -0.034850843
-0.049487054 0.02602357 -0.0026164018
-0.032525811 0.015170923 -0.10763333
-0.047720388 0.012351846 -0.092423201
-0.049554236 0.012710171 -0.071952485
-0.049534593 0.013457474 -0.049580596
-0.049512304 0.014305654 -0.024188722
-0.0047859717 0.010529671 -0.12067612
-0.032925595 0.0058145178 -0.1072283
-0.046926375 0.0035152663 -0.093213096
-0.049561396 0.0031822356 -0.07495673
-0.049542673 0.0033235971 -0.053311616
-0.049521472 0.0034835606 -0.028819952
-0.049496796 0.0036661222 -0.00088019186
2.5687219e-05 0.00012876702 -0.10590573
0.0042818785 0.00013513374 -0.082108423
0.0043807076 0.00014221572 -0.044826135
0.0018972901 0.00055475999 0.014420399
-0.051167555 0.075368717 -0.078188464
-0.051165849 0.068380579 -0.07624983
-0.039180387 0.068577357 -0.060706429
-0.017107597 0.074820593 -0.060810845
-0.044455394 0.055630039 -0.060667157
-0.05116003 0.048488282 -0.072211996
-0.048772618 0.046262704 -0.093052626
-0.051149119 0.038098704 -0.01135038
-0.051161408 0.040302217 -0.089990966
-0.051156111 0.037119094 -0.064327739
-0.051152617 0.034363855 -0.044219326
-0.051150054 0.031891942 -0.02769063
-0.051147543 0.029744778 -0.015718799
-0.051145595 0.027659679 -0.0040940284
-0.041838795 0.028777963 0.0087146489
-0.02658526 0.031649116 0.02392081
-0.04558748 0.028649366 -0.096231624
-0.051155634 0.024548031 -0.079886928
-0.051153623 0.022504875 -0.068126082
-0.051151652 0.02051748 -0.056686141
-0.051149249 0.018583726 -0.045554265
-0.051147409 0.016701186 -0.034717955
-0.051145602 0.014867999 -0.024165714
-0.051143844 0.013082246 -0.013886509
-0.051142134 0.011342108 -0.0038698844
-0.043501627 0.011435083 0.0070741312
-0.030704502 0.012559025 0.019832494
-0.035987109 0.0128811 -0.10586789
-0.051153254 0.0075857015 -0.087534711
-0.051151473 0.0058580516 -0.077327706
-0.051149718 0.0041719628 -0.067366265
-0.051148016 0.0025259589 -0.057641607
-0.051146347 0.00091862108 -0.048145391
-0.048475474 -0.00020433236 -0.039231796
-0.038541738 -0.00020011139 -0.030776184
-0.027539175 -0.00019553184 -0.021410238
-0.015284752 -0.00019042015 -0.010978642
0.013935411 0.0018137168 0.0021282197
0.015043959 -0.00017967986 0.020796299
0.03231385 -0.0001637535 -0.074541345
-0.050313961 0.076018006 -0.082171217
-0.050299983 0.066881433 -0.073311023
-0.025960188 0.069285259 -0.060911156
-0.012485742 0.069054112 -0.060958464
-0.050288834 0.051084526 -0.070297882
-0.05021441 0.037036784 -0.0026775512
-0.023172576 0.039977185 0.026332673
-0.04481817 0.04476092 -0.060820322
-0.050239332 0.03596893 -0.028425694
-0.05021264 0.03060979 -0.0042194673
-0.035757326 0.030914143 0.013762413
-0.050301749 0.039411902 -0.089465581
-0.050269376 0.033453491 -0.059942473
-0.05024318 0.028555002 -0.036143564
-0.050220251 0.024262767 -0.015290116
-0.04728201 0.021350492 0.0022511368
-0.033102863 0.021822317 0.01641877
0.018124949 0.031456191 0.029130775
-0.050270807 0.023644773 -0.066667892
-0.050246548 0.019563626 -0.043975167
-0.050224684 0.015958298 -0.023927735
-0.050205648 0.012749943 -0.0060880966
-0.041770563 0.011760512 0.0077626877
-0.028438721 0.011739676 0.021083694
-0.050282024 0.014636365 -0.083142765
-0.050258182 0.011168228 -0.060550176
-0.050237 0.0080872159 -0.040479444
-0.05021764 0.0053320159 -0.022530865
-0.050200611 0.0028533973 -0.0063843494
-0.043176569 0.0017044334 0.0063620531
-0.031217333 0.0012464161 0.018312057
-0.050282817 0.0029150066 -0.090012603
-0.050258435 0.00013688659 -0.066990182
-0.03194185 0.000127779 -0.058731861
-0.01068912 0.00013456345 -0.049293477
0.015761431 0.00014532471 -0.03511855
0.032905318 0.00016500283 -0.099108718
-0.034114279 0.079973087 -0.098006301
-0.023384543 0.079970248 -0.099542305
-0.020350354 0.079967178 -0.068938993
-0.0087280134 0.07996662 -0.094044663
0.001403101 0.079964064 -0.1135038
-0.0075358907 0.076318651 -0.059168227
0.0042606182 0.079961367 -0.063901313
0.0048815804 0.077484354 -0.059210025
0.021948738 0.079959631 -0.11015163
-0.039979294 0.039981425 -0.047752898
0.019982368 0.079957657 -0.068362996
0.027802443 0.079956785 -0.093639947
-0.037182041 0.039979734 -0.0030741272
-0.027819339 0.039978843 -0.032214154
-0.011606529 0.046138167 -0.059062559
0.03318559 0.079954363 -0.068436436
0.038784392 0.079953551 -0.084623337
-0.02588745 0.039975852 0.024030052
-0.018997516 0.039973792 0.004832142
-0.012595895 0.039975472 -0.012320003
-0.0066811331 0.039971005 -0.027477112
-0.00085935491 0.039971463 -0.042382501
0.0052333097 0.039971899 -0.05872177
0.048583169 0.079950467 -0.059461892
0.049693137 0.076404281 -0.072686091
0.049685042 0.070969798 -0.088902801
6.6329063e-05 0.039968275 0.019932998
-0.015612146 0.017020462 0.0037394143
0.012958931 0.039967466 -0.018287441
0.019255068 0.039966226 -0.036954798
0.025456131 0.03996668 -0.055335701
0.049681101 0.06275627 -0.064909041
0.049670193 0.055611353 -0.084874041
0.01718998 0.039965197 0.021038216
0.023834277 0.039964564 -0.00010419847
0.030381193 0.039963949 -0.020936728
0.036833249 0.039963868 -0.041466057
0.049667355 0.048166685 -0.062070034
0.049652092 0.038327921 -0.088261582
0.034008045 0.039960984 0.0062207221
0.042084839 0.039960928 -0.022370411
0.049660206 0.038911086 -0.052223194
0.049639311 0.025409857 -0.087406367
0.045297407 0.039958216 -0.0046898308
0.04965619 0.032306846 -0.04021997
0.049630582 0.015587618 -0.082226016
0.049666025 0.034687333 -0.0093105659
0.049637444 0.01650689 -0.053326733
0.048914865 0.029103372 0.0015137367
0.049625047 0.0050470484 -0.059087999
0.049621366 0.0002962799 -0.0541251
0.049636461 0.0055212327 -0.0073006861
-0.034629308 0.07996992 -0.06923528
-0.032997537 0.07996688 -0.1052958
-0.025763299 0.079965256 -0.11300846
-0.013113409 0.079961792 -0.093450241
-0.0075395009 0.07996022 -0.092246197
-0.041032746 0.039984368 -0.013180679
0.0061527002 0.079959273 -0.064294919
0.0026677342 0.079957627 -0.091379605
0.00016392523 0.079958916 -0.11378112
-0.019037571 0.039982248 0.012211142
-0.021069717 0.039979976 -0.011316406
-0.022660907 0.039978407 -0.032571685
0.023136696 0.079954959 -0.060296942
0.022308147 0.079954468 -0.07387761
0.021778969 0.079953663 -0.085913412
0.021542098 0.079953216 -0.09644486
0.021589931 0.079953112 -0.10551094
0.021636527 0.07995265 -0.11442133
0.012981566 0.039974235 0.027289918
0.013090976 0.039973445 0.015851373
-0.0016074495 0.023448044 0.01644239
-0.010978973 0.012635579 0.011922481
0.014134052 0.039968766 -0.014010544
0.013871282 0.039969824 -0.026397169
0.01325365 0.039969694 -0.040223159
0.049612846 0.079947464 -0.061903346
0.048922472 0.079947099 -0.072796464
0.047989093 0.079946734 -0.084680632
0.040910542 0.07373444 -0.098366946
0.023033809 0.056418218 -0.11615565
0.036985155 0.039966024 -0.0038672562
0.034211434 0.03996538 -0.026268333
0.031145845 0.039965291 -0.049862348
0.049998499 0.066685304 -0.074972525
0.043956585 0.062711723 -0.095296293
0.049799878 0.0399644 -0.0013059578
0.045444392 0.039963264 -0.03012079
0.050005712 0.052102841 -0.060584117
0.050001681 0.057946622 -0.088670425
0.050021738 0.027452502 -0.0017253493
0.050014101 0.036580209 -0.040650696
0.050008088 0.04503905 -0.076269649
0.023188666 0.016321015 -0.11588712
0.050019145 0.026671192 -0.043015968
0.050010674 0.03793985 -0.085342713
0.050029717 0.0098759616 -0.019162757
0.050016899 0.025548255 -0.072844513
0.050026886 0.010333515 -0.0469153
0.050025214 0.010214485 -0.06364838
0.050023727 0.0094301356 -0.086455762
-0.029189875 0.080643281 -0.085003778
-0.011975349 0.080636814 -0.086012512
0.0030359584 0.080630936 -0.061969925
0.012020154 0.080627412 -0.089908764
0.020298291 0.080624178 -0.10991095
0.031564068 0.080619968 -0.063264459
0.038402412 0.080617279 -0.081123888
0.03370408 0.075683609 -0.05923412
0.047789156 0.080613598 -0.087034576
-0.030515343 0.04065159 0.011869152
-0.026032191 0.040651061 -0.020107361
-0.021697372 0.040647734 -0.045353778
0.050865643 0.075239442 -0.060998075
0.050865471 0.07384517 -0.07476753
0.050865274 0.072437406 -0.087416574
0.033515852 0.061690114 -0.10654439
0.0016874941 0.040638812 0.023683555
-0.0099158194 0.032025024 0.012089965
-0.014382759 0.027281791 -0.0014187469
0.011917279 0.040635515 -0.019415746
0.015138065 0.040633261 -0.031350534
0.018273693 0.040632278 -0.042962629
0.021324936 0.040630922 -0.054264612
0.050863724 0.057574142 -0.062920079
0.050863516 0.056004383 -0.072247133
0.05086289 0.054418236 -0.083000533
0.044022541 0.048210807 -0.096048005
0.021802787 0.031281602 -0.11813158
0.040599495 0.040623762 0.0088930894
0.043086983 0.040622633 -0.0062779924
0.045515664 0.040621892 -0.022515122
0.047886647 0.040620811 -0.038369644
0.05020244 0.040619768 -0.053855043
0.050861351 0.039378408 -0.069200955
0.050860666 0.037616592 -0.087531708
0.021982605 0.012737066 -0.11790565
0.050860859 0.032216825 -0.0011696625
0.050860155 0.030376494 -0.022396354
0.05085991 0.028516104 -0.043859057
0.050859667 0.026634928 -0.06556157
