# .PCD v0.7 - Point Cloud Data file format
VERSION 0.7
FIELDS x y z
SIZE 4 4 4
TYPE F F F
COUNT 1 1 1
WIDTH 1017
HEIGHT 1
VIEWPOINT 0 0 0 1 0 0 0
POINTS 1017
DATA ascii
0.16830316 0.12412111 0.0031768989
-0.0078403661 0.10766678 -0.014626601
-0.0078403661 0.089400075 -0.025916049
-0.0078403661 0.07113336 -0.037205495
-0.0078403661 0.052866649 -0.048494946
-0.0099877547 0.03459993 -0.059784383
0.10167605 0.01450655 -0.072202772
0.069465332 -0.005586829 -0.084621161
0.079812899 0.12409408 -0.025980704
0.079619929 0.11892322 0.0045989132
0.079698093 0.10098219 0.0045961048
0.079784468 0.081155069 0.004593024
0.081705987 0.059127927 0.0045895767
0.16116577 0.034513101 0.0045857336
0.0052766036 0.00086899759 0.004580617
0.04873981 0.094635412 0.004713478
0.14631131 0.069473214 0.0047101928
0.15142198 0.046982564 0.0047072745
0.1477235 0.026759453 0.0047046421
0.14438 0.0084774205 0.0047022579
0.14920768 8.9855195e-05 -0.016792657
0.090976946 0.00011085987 -0.081994131
0.10911686 0.12406089 -0.072375342
0.067059509 0.12405437 -0.031214856
0.03434607 0.1240501 -0.059567433
0.009810538 0.12404618 -0.020243563
-0.011502304 0.12404361 -0.081133388
-0.012057509 0.11374752 -0.061926432
-0.010142417 4.37212e-05 -0.070709832
0.0098503157 4.6477318e-05 -0.032954022
0.036174126 4.9991606e-05 -0.084117413
0.067145713 5.4650307e-05 -0.014573473
0.11185765 6.0729981e-05 -0.063289471
0.0072739031 0.12406676 -0.0045031165
0.062005334 0.12405875 -0.0019113207
0.099291116 0.12405277 -0.081672668
0.13034427 0.12404874 -0.011720102
0.15372884 0.12404543 -0.019380646
0.16797775 0.10551324 -0.045748401
0.16814604 0.056742635 -0.039414283
0.1607957 4.4655801e-05 -0.045551032
0.13846771 4.7473906e-05 -0.016791891
0.11081089 5.1145555e-05 0.0010583735
0.075892165 5.5990218e-05 -0.02220685
0.027873268 6.3099862e-05 -0.033202883
0.051870931 0.10837166 -0.090415686
0.083716124 0.079192117 -0.090411492
0.049499035 0.05568634 -0.090408452
0.05096817 0.034599222 -0.090405725
0.052293543 0.015575719 -0.090403274
0.052900858 8.4233281e-05 -0.086215213
0.030122995 0.0001001358 -0.037246998
0.16759509 0.11638343 -0.05144285
0.16760629 0.095348857 -0.04274625
0.16762716 0.076452501 -0.026568318
0.1676458 0.05923814 -0.01183069
0.16766323 0.04349073 0.0016513371
0.16596305 0.027725169 0.0052812123
0.16760913 0.00022715091 -0.040638
0.10403994 0.12371357 0.0036320495
-0.012428236 0.088150062 -0.071467012
0.15421572 0.074411914 0.0034626485
0.098017342 0.047401343 0.0036525964
0.057311106 0.027836747 0.0037901879
-0.012384672 0.014400921 -0.03766571
0.023638196 0.11793637 -0.091094255
-0.011555681 0.092246972 -0.088956706
0.0055191661 0.07769005 -0.091033325
0.030419322 0.060398526 -0.091117054
0.062288776 0.038267288 -0.091224238
0.092730999 0.011008134 -0.091326609
-0.011551342 0.01016232 -0.085729599
0.16844928 0.10206277 -0.083018169
0.1031109 0.093817063 -0.089505002
0.13298039 0.071340106 -0.089606002
0.15648119 0.053655639 -0.08968544
0.16844693 0.038090926 -0.084662169
0.12964219 0.014592271 -0.089594558
0.12745245 0.12461469 -0.015330729
0.051273018 0.12460728 -0.01536673
0.018171228 0.1246026 -0.023221996
0.0037073088 0.1245985 -0.039083526
0.047240905 0.12459473 -0.089943007
0.044331282 0.09208151 -0.091103323
0.0014211035 0.065012187 -0.091121428
0.027050501 0.12460934 -0.047724858
0.085309684 0.12460411 -0.044884305
0.096716121 0.12459982 -0.063957587
0.062985271 0.103508 -0.090103284
0.051451575 0.055852242 -0.08998397
0.1539606 0.10483525 -0.090186492
0.063402288 0.12466829 -0.00052061083
0.063402288 0.12466829 -0.016801229
0.063402288 0.12466829 -0.033081841
0.063402288 0.12466829 -0.049362455
0.063402288 0.12466829 -0.065643065
0.063402288 0.12466829 -0.081923679
0.066689007 0.12461209 -0.07938695
0.015126424 0.12460642 -0.0059826658
0.021603851 0.11335144 0.0054246592
0.053580351 0.10662208 0.0054155327
0.16077717 0.12459398 -0.02380831
0.13603488 0.10687071 0.0053625368
0.1647263 0.12461919 -0.079227336
0.074985951 0.12460787 -0.061829641
0.098368719 0.12460358 -0.018272607
0.086711638 0.1245994 -2.8214454e-05
0.00027546883 0.12459551 -0.028908568
0.041399822 0.10361895 0.0044486835
0.037273455 0.042344395 0.0043121171
0.016939655 0.12290037 0.0047473288
0.039520588 0.10626089 0.0047050714
0.096724264 0.081686907 0.0046116542
0.012897577 0.076681808 0.004715953
-0.0067850207 0.063303411 0.0047305203
0.052987792 0.025890011 0.0046239044
0.067565732 0.12318648 0.005317824
0.067565732 0.10570464 0.005317824
0.067565732 0.088222779 0.005317824
0.067565732 0.070740923 0.005317824
0.067565732 0.053259071 0.005317824
0.067565732 0.035777219 0.005317824
0.067565732 0.018295364 0.005317824
0.067565732 0.00081351283 0.005317824
-0.013345327 0.12122741 -0.081495002
0.044615995 0.073894665 0.0047101616
0.022845345 0.049297709 0.0047526238
0.15007788 0.052343085 0.0046035647
0.0013266372 0.013850293 0.0048029302
0.024713559 0.0015472699 0.0047846199
0.10980991 0.12429558 0.0056177117
0.13061568 0.11082169 0.0056037544
0.16695186 0.10054719 0.0055688261
0.085106619 0.069156803 0.0056859422
0.04097712 0.036940604 0.0057606865
0.092849016 0.027397847 0.0057074619
0.15563975 0.015405693 0.0056431415
0.16768311 0.08097475 0.0048495247
0.11798263 0.073669307 0.0057175877
0.10204662 0.057059191 0.0057250499
0.0012198448 0.052766852 0.0058518122
0.077677734 0.023258999 0.0057289647
0.10621459 0.0044597769 0.0056767799
0.079597779 0.12430382 -0.089740165
0.05641542 0.10562529 -0.09032689
0.16933739 0.080169961 0.0016381931
0.11513452 0.076302558 -0.090380169
0.15036407 0.065109707 -0.090416394
0.13273597 0.040942326 -0.09037444
0.15997022 0.020332098 -0.090393141
0.027357474 0.11094919 -0.091018237
0.027357474 0.093467332 -0.091018237
0.027357474 0.075985476 -0.091018237
0.027357474 0.058503628 -0.091018237
0.027357474 0.041021775 -0.091018237
0.027357474 0.023539918 -0.091018237
0.027357474 0.0060580634 -0.091018237
0.15561351 0.088588737 -0.090450965
0.098991498 0.08304774 -0.090389401
0.10745186 0.059932016 -0.090415575
0.16331017 0.031330258 -0.090500683
0.1074678 0.023533354 -0.090441339
0.07094086 0.010161805 -0.090408474
0.035801996 0.12432739 -0.011023185
-0.011557694 0.11505024 -0.066842698
0.12641065 0.08572787 -0.091438778
0.034964349 0.0810849 -0.091336079
0.090616159 0.049225383 -0.091423586
0.077080235 0.029630031 -0.091422155
0.045907851 0.010038666 -0.091400072
-0.011474891 0.10135818 -0.066988811
0.028595395 0.076661758 -0.091407798
0.029163642 0.057127442 -0.091392845
0.093774311 0.049297467 -0.091470696
0.023492483 0.021996286 -0.091357097
-0.0010749912 0.0052909423 -0.09131182
0.0011510563 0.10268375 0.0044707824
0.012194094 0.0068001272 0.0046272278
0.084558889 0.035604585 0.0045303199
0.041510321 -0.00048529147 -0.018759046
0.068004362 -0.00048194409 -0.026588174
0.084806435 -0.00047810553 -0.043790311
0.10248975 -0.00047157289 -0.075065374
0.075879067 0.11156727 0.005754876
0.13632773 -0.000489645 0.00091513636
0.14313504 -0.00048639296 -0.025373671
0.017902218 0.020858755 0.0056008338
0.020093836 -0.00048000814 -0.00065609458
0.090804294 -0.00047479154 -0.07432729
0.10898802 -0.0006682825 0.0027355098
0.10898802 -0.0006682825 -0.013545103
0.10898802 -0.0006682825 -0.029825719
0.10898802 -0.0006682825 -0.046106327
0.10898802 -0.0006682825 -0.062386941
0.10898802 -0.0006682825 -0.078667559
0.15330553 0.053248033 -0.090254538
0.13589142 0.0058059837 -0.090323903
0.15273418 -0.00048778535 -0.060698409
0.079685599 -0.00048475742 -0.083919115
0.05898729 -0.00048131467 -0.071883172
0.020260358 -0.00047739505 -0.067469984
0.046887863 -0.00046897889 0.0037720632
-0.0055683851 -0.00049252511 -0.090474106
0.092496723 0.047825642 -0.091322422
0.12959297 0.039250061 -0.091334857
0.097311348 -0.00048256875 -0.082315244
0.11149826 -0.00047883033 -0.064227954
0.088253774 -0.00047330855 -0.015693633
0.10117316 0.12443842 -0.077938803
0.0017042351 0.12441085 -0.016332414
-0.012195893 0.11853354 -0.059719142
-0.012171907 0.097127952 -0.053869743
-0.012109766 0.058536977 -0.010583665
-0.012127028 0.041575022 -0.067245163
0.058309123 0.12443063 -0.066422321
-0.01272285 0.12418077 -0.078729898
-0.007691083 0.11934269 0.0042034914
0.13536942 0.0038519239 0.003434801
-0.012729726 0.073025465 -0.012720849
-0.01275908 0.03545903 -0.018347571
-0.012613001 0.10946758 -0.0065514729
-0.01261302 0.088526003 -0.034473576
-0.012613011 0.067584418 -0.062395688
-0.012613011 0.046642836 -0.090317786
-0.012613001 0.027097369 -0.023304742
-0.01261302 0.0061557866 -0.051226851
-0.012870464 0.086752042 -0.054612517
-0.012842273 0.053913206 -0.059469186
-0.01281764 0.027930032 -0.058947489
-0.012802763 0.0081432918 -0.065470554
0.037582275 -0.00025193216 0.001595068
0.11365867 -0.00021036148 -0.087661684
-0.012198549 0.085008085 -0.025073193
-0.012252469 0.037375938 -0.071492732
0.040624347 0.041538227 -0.091462269
-0.012242245 0.010089512 -0.0022880125
0.021853471 -0.00024790288 -0.022435904
0.15613674 -0.0001989317 -0.026168799
0.11711594 0.12441924 -0.0296355
0.15573749 0.12440202 0.00028498648
0.1152795 0.082331344 0.0057242154
0.16824688 0.07605426 -0.057258651
0.16826481 0.062086426 -0.0037615823
0.027386693 0.12445326 -0.040242583
0.11653344 0.12441618 -0.082119271
0.16880837 0.1233839 -0.061629497
0.1688284 0.10180771 -0.051474027
0.16885072 0.075383551 -0.044269394
0.16888374 0.037122656 -0.031013342
0.16872272 0.11784421 -0.072168417
0.16872272 0.096902631 -0.044246312
0.1687227 0.075961053 -0.0163242
0.1687227 0.056415576 -0.083337262
0.1687227 0.035473999 -0.055415154
0.1687227 0.014532418 -0.027493048
0.16894177 0.081519634 -0.088815346
0.13271187 0.078835838 -0.089665927
0.16889782 0.026434727 -0.073332451
0.14124958 0.018239103 -0.089824192
0.14645897 -0.00025908946 -0.066041939
0.091392078 -0.00023350239 -0.03429212
0.16831072 0.093718253 -0.040509567
0.16836518 0.043052599 0.0017557763
0.16835716 0.030117894 -0.038294081
0.16836751 0.010760741 -0.045554832
0.14046578 -0.00025646685 -0.023577077
0.085398607 -0.0002289629 -0.07074035
0.06540972 0.12397179 -0.01868582
0.048433304 0.12396135 -0.050464649
0.045384709 0.12395332 -0.078226842
0.043175772 0.11426016 -0.09034092
0.041176945 0.092227913 -0.09034916
0.16500758 0.029876327 -0.090383828
0.0074412441 0.037663225 -0.090367407
0.089418352 0.12397078 -0.022868939
0.07811743 0.12396095 -0.059751645
0.08400584 0.12395304 -0.0863427
0.084607333 0.10641804 -0.089976929
0.084324509 0.082445882 -0.089954816
-0.0018579102 0.031122483 -0.089890614
0.13880415 0.026613923 -0.089914471
0.072600581 0.12512009 -0.015109444
0.071188472 0.12511645 -0.038830504
0.071551517 0.12511322 -0.060043149
0.071878083 0.12510979 -0.079124972
0.071772732 0.11428766 -0.090907134
0.06315396 0.07311932 -0.090891629
0.0013217831 0.12521403 -0.0012199974
0.058023538 0.12521124 -0.021668129
0.03810969 0.12521088 -0.057010587
0.047945477 0.12521005 -0.071927033
0.14022963 0.1252086 -0.040537652
0.10841169 0.12520829 -0.080603011
0.16154271 0.12520626 -0.087056898
0.067082107 0.12391097 -0.0014512682
0.07426808 0.1239065 -0.059970956
0.098992385 0.12390335 -0.072176516
0.14592095 0.12390012 -0.036424208
0.15201387 0.12389673 -0.072310224
0.0070716618 0.12387129 -0.08858265
0.046193141 0.12386952 -0.065398797
0.079690859 0.12386843 -0.046156887
0.10857058 0.12386679 -0.047600303
0.13360409 0.12386577 -0.079395294
0.15679035 0.12386481 -0.054582454
0.1225463 0.12521206 -0.014862726
0.071125142 0.12521081 -0.0173475
0.13444202 0.12521046 -0.076813124
0.11595525 0.12520964 -0.086229362
0.082700945 0.1252088 -0.087997206
0.015236611 0.12520723 -0.074214339
0.14257923 0.12387085 -0.010204523
0.10410719 0.12386911 -0.048011504
0.071138412 0.12386806 -0.08058279
0.042694453 0.12386703 -0.086855739
0.018023821 0.12386599 -0.062504254
-0.0034591628 0.12386496 -0.0034356855
0.12564488 0.1239137 -0.036238872
0.070009135 0.12390808 -0.015718723
0.060759991 0.12390456 -0.063246042
0.0061610364 0.12390136 -0.011914692
0.011653032 0.1238978 -0.071141988
0.011944112 0.012313705 -0.091319427
0.15780985 0.12396751 -0.069558479
0.15743235 0.12395822 -0.036477782
0.15565573 0.12395073 -0.0093903067
0.15660384 0.11651543 0.004636135
0.16610916 0.096686639 0.0046429727
0.11468829 0.05369278 0.0046636392
0.16482149 0.013539314 0.0046752882
0.13500941 0.12396826 -0.037366372
0.12436213 0.12395899 -0.0073117302
0.1217149 0.11249937 0.0042713596
0.1263319 0.088603914 0.0042488812
0.14060503 0.058111645 0.0042181681
0.088937953 0.036394168 0.0042091846
0.10081384 0.12512313 -0.088936508
0.1387925 0.12511916 -0.063185051
0.13545769 0.12511565 -0.040261369
0.13247018 0.125112 -0.019724283
0.1297781 0.12510918 -0.00121886
0.13408901 0.1033596 0.0052025127
0.0096360585 0.052018587 0.0051827859
0.12781806 0.12521225 -0.072595939
0.097143993 0.1252109 -0.055680342
0.013723755 0.12520933 -0.079907142
0.00821146 0.12520856 -0.062969252
0.11662719 0.07840085 0.0043324232
0.049277201 0.12489659 0.0044826507
0.134845 0.12391474 -0.067188986
0.093318149 0.1239092 -0.05119342
0.059226155 0.12390497 -0.045649294
0.014555803 0.12390199 -0.07272844
-0.0093825581 0.1238994 -0.068703473
-0.012311883 0.045671463 -0.06563133
0.0052023409 0.12521252 -0.049922708
0.085876457 0.12521072 -0.066684186
0.14595097 0.12520868 -0.07988511
0.010354485 0.087623425 0.0054176426
0.083680674 0.12520874 -0.0017426253
0.12143623 0.1252071 0.0030114555
0.036106434 0.1239139 -0.076752402
0.059659038 0.12390909 -0.030993937
0.081069581 0.12390492 -0.0043623112
0.14069659 0.12390167 -0.063942492
0.16751969 0.12146758 -0.068039246
0.1674099 0.063599661 -0.039177552
0.1257899 0.12402363 -0.005644667
0.12226308 0.10923834 0.0041952706
0.12475528 0.090160973 0.0041821194
0.1427227 0.067156941 0.0041614678
0.031029133 0.061832696 0.0041965866
0.012181363 0.042292185 0.0041913176
0.0015826034 0.0099694589 0.0041751908
0.041759424 0.11270172 0.0044569136
0.040864516 0.095916964 0.0044565271
0.039924357 0.078283586 0.0044561313
0.038935427 0.059735555 0.0044557168
0.04337021 0.040199447 0.0044545438
0.094933815 0.019594841 0.004454067
0.15299432 0.12421465 0.0055281399
-0.0010796499 0.10367006 0.0055793715
0.019432845 0.087918617 0.0055681849
0.05204514 0.070326157 0.0055525349
0.10456517 0.049479727 0.0055289986
-0.0058254669 0.038578566 0.0055679511
0.079637431 0.0116431 0.0055310819
0.044309787 0.11377289 0.0055764006
0.020854864 0.091352314 0.0055883168
0.088853687 0.079052471 0.005568204
0.15059008 0.063686088 0.0055513098
0.0069857691 0.03899087 0.0056018783
0.030888787 0.023421099 0.0055972245
0.047463134 0.0073461817 0.0055948258
0.1462941 0.11292233 0.0045231436
0.032065149 0.08983095 0.0045218039
0.047599025 0.069990799 0.0045205019
0.048374675 0.051160876 0.0045199776
0.049111709 0.033266414 0.0045187855
0.049813032 0.016239151 0.00451766
0.050220672 0.00014831543 0.0026223517
0.14568232 0.12090571 0.0042348192
-0.012588639 0.06016735 0.00429965
0.075979754 0.055257253 0.0042809201
0.1036372 0.039076656 0.004281316
0.1020439 0.020026121 0.004289608
0.10057598 0.0024778796 0.0042978381
0.099652775 0.00019706249 -0.078851409
-0.013506279 0.1117618 -0.065222137
0.055038366 0.089322589 0.0052131056
-0.013360195 0.070045382 -0.022157602
0.06543503 0.053238746 0.0051999642
-0.012308121 0.039298538 0.0052968478
0.076388694 0.015220184 0.0051867273
-0.012397566 0.11694008 -0.002582879
-0.011033258 0.086623237 0.0039793015
0.14396301 0.10435525 0.0036046123
-0.01243146 0.058670238 -0.030918587
-0.012361431 0.039769888 -0.0035267209
-0.0058530141 0.024929056 0.0039985273
-0.0071091936 0.010602703 0.0040087556
-0.012391558 0.11362693 -0.032684859
-0.012408895 0.097316459 -0.037097827
-0.012376642 0.081728593 -0.018605486
-0.011740455 0.068534262 0.0039797518
0.026856909 0.044935245 0.0038733506
-0.012423124 0.027339945 -0.028078508
-0.01089726 0.12405676 -0.070806868
0.10182295 0.12401614 -0.0055325604
0.10443022 0.1108747 0.0046988488
0.10494867 0.093594074 0.004706745
0.12567958 0.077966735 0.0047091818
0.040437222 0.040229157 0.0047484445
0.051296785 0.015385785 0.004757395
0.15491261 0.12013599 0.0060457084
-0.0044262744 0.10411388 0.0060997726
0.026672207 0.085819766 0.0060937498
0.065978371 0.068799756 0.0060846424
0.11809408 0.053965222 0.0060701654
-0.0056279041 0.023355382 0.0061134337
0.097414739 0.014312834 0.0060836985
0.13988978 0.11264979 0.00615572
0.13488998 0.096236274 0.0061621382
0.0070626261 0.085123494 0.0063213827
0.10568596 0.063680917 0.0061985254
0.16796398 0.048334561 -0.0084627364
0.07139264 0.025452258 0.0062412452
0.16800575 0.019031834 0.0036519479
0.06595733 0.11883259 0.0052859448
0.061464142 0.098361604 0.005306487
0.074025407 0.077982537 0.0052864407
0.10336173 0.06104384 0.0052252389
0.14348687 0.049815975 0.0051353979
0.04470057 0.0026450921 0.0053938292
0.16730723 0.0017859126 -0.023196092
0.16739292 0.090742491 -0.00049508095
0.12831931 0.080647729 0.005195694
0.16372155 0.05730176 0.0050973366
0.16738853 0.043339804 -0.012628465
0.16736931 0.028006792 -0.024777424
0.16738506 0.012291703 -0.020882996
0.11891586 0.1126553 0.0061095832
0.061209306 0.098335035 0.0061259391
0.12986454 0.074368529 0.0060975864
0.0015969324 0.061814617 0.0061404537
0.048861459 0.041344639 0.0061191581
0.083035029 0.023486327 0.0061037992
0.10040358 0.0072158431 0.0060941339
0.13660333 0.096362136 0.0048261215
0.0004166603 0.096164338 0.0048744204
0.11944366 0.052749254 0.0048032715
0.15065947 0.029790526 0.0047763204
0.15134902 0.013192301 0.0047651147
0.1496309 0.00015639306 -0.0024220776
-0.01271451 0.00018937587 -0.037649356
0.0117834 0.12402327 -0.085234731
0.011830945 0.10723352 -0.089886516
0.0082762334 0.087472506 -0.089872554
0.16781458 0.087657116 -0.08992856
0.10588782 0.058433972 -0.08988855
0.12491574 0.038233064 -0.089882299
0.13476421 0.0046442891 -0.089865118
0.096202552 0.11270171 -0.090157315
0.096650012 0.095916964 -0.090156943
0.097120084 0.078283586 -0.090156555
0.097614564 0.059735555 -0.090156138
0.092658907 0.040199447 -0.090154953
0.040546007 0.019594837 -0.090154476
0.15500142 0.11869577 -0.091281913
0.14076294 0.10371576 -0.091273136
0.11902153 0.08757551 -0.091262013
0.084476508 0.069499135 -0.091245554
0.028751196 0.047984611 -0.091221459
0.14483559 0.037004784 -0.091261752
0.054482747 0.0090759564 -0.09122289
0.091723688 0.1162677 -0.091269806
0.11673477 0.093147106 -0.091282368
0.045279771 0.080650695 -0.091261148
0.16332851 0.054336768 -0.091304205
0.13204637 0.039399728 -0.091296636
0.10717617 0.023450272 -0.091291755
0.089994945 0.006970291 -0.091289237
0.1687896 0.11076514 -0.090223581
0.10380907 0.08983095 -0.09022221
0.088803969 0.069990799 -0.090220936
0.088530198 0.051160876 -0.090220392
0.088270076 0.033266414 -0.090219215
0.08802256 0.016239148 -0.09021809
0.087878682 0.00014831066 -0.088322774
0.1595066 0.084787875 -0.08998768
0.15181956 0.063316278 -0.089994952
0.058815841 0.058574349 -0.089974508
0.030357009 0.041889381 -0.08997491
0.032932147 0.022159386 -0.089984357
0.035298124 0.0040296745 -0.089992464
0.032915484 0.00019705773 -0.01342828
0.16701299 0.099046499 -0.090995573
0.077459425 0.090942748 -0.090884402
0.15980606 0.069278851 -0.090986937
0.065775096 0.052704833 -0.090869635
0.15227936 0.038191184 -0.090977386
0.053424966 0.012288022 -0.090854026
0.15322033 0.12070052 -0.089629509
0.14671047 0.092497893 -0.089628227
0.16862346 0.08249411 -0.022962052
0.1684752 0.054806508 -0.083739489
0.15536088 0.040201273 -0.089675486
0.14180134 0.02507348 -0.089651011
0.14358024 0.0094887922 -0.089663126
0.16844118 0.1122533 -0.081328698
0.168455 0.097683661 -0.078159072
0.16574484 0.083211444 -0.089682519
0.14816757 0.065651082 -0.089630455
0.10117167 0.03886934 -0.089502312
0.16846634 0.03549825 -0.086780421
0.14265797 0.12405676 -0.008088598
0.037274729 0.12401631 -0.075414047
0.034486685 0.11256342 -0.090393692
0.033321943 0.095809564 -0.090401746
0.012983666 0.080624029 -0.090403482
0.092361838 0.044568125 -0.090441078
0.081065357 0.020690527 -0.09044943
0.15702078 0.12245775 -0.091796592
0.1368444 0.10404814 -0.09179353
0.10714903 0.086251862 -0.091787107
0.06964536 0.069662444 -0.091777824
0.01990992 0.055150028 -0.091764718
0.13673258 0.025650935 -0.091805659
0.039039362 0.01660163 -0.091777571
-0.00099536893 0.11022339 -0.091835
0.0035340404 0.094574556 -0.091840342
0.11731631 0.083632797 -0.091982029
0.029869452 0.063593134 -0.091873132
0.16496302 0.040298864 -0.092041351
0.060534865 0.027517833 -0.091911316
0.1227775 0.00031183244 -0.091988996
0.05700174 0.11696067 -0.090908833
0.060201559 0.098607227 -0.090925284
0.049723778 0.080327421 -0.090909176
0.025568996 0.064837925 -0.09085954
-0.0079535581 0.054108512 -0.090785444
0.071589924 0.014038701 -0.090993859
-0.0037779475 0.0081038289 -0.090817429
-0.01121438 0.09930411 -0.055422176
0.0046445038 0.075524457 -0.090836637
-0.011263303 0.059855968 -0.069438942
-0.011208887 0.045902967 -0.041495919
-0.011184311 0.02863122 -0.026476154
-0.011204481 0.010871453 -0.031968698
0.018563842 0.11034617 -0.09180297
0.073556051 0.096271783 -0.091818422
0.0086470125 0.073091917 -0.091791518
0.13051102 0.060693111 -0.091832183
0.086082585 0.040839139 -0.091812022
0.053895678 0.0234554 -0.091796786
0.037598923 0.0075798943 -0.091788247
0.00072856428 0.091966629 -0.090517022
0.12960047 0.091140501 -0.090562284
0.018674521 0.049850125 -0.090494864
-0.0102358 0.027714791 -0.09046983
0.16054393 0.027691184 -0.090532035
0.15646949 0.0084247924 -0.090517849
0.14693987 0.00018873691 -0.041938134
0.0100811 0.071065061 0.004393463
0.0013823939 0.037635174 0.0044090892
0.022174487 0.018656366 0.0044153645
0.025218572 0.00018434525 0.0026726341
0.02602406 0.00019085885 -0.022386849
0.027012853 0.00019884587 -0.053148963
0.070587412 0.00020919323 -0.087418899
0.023971615 0.1026548 0.0048649311
-0.010126143 0.074365743 0.0048465822
0.011384139 0.041114159 0.0048138332
0.017623581 0.01611363 0.0047908737
0.018393617 0.00019052983 -0.0018744016
0.0045391941 0.00019817353 -0.030628845
0.062430143 0.00020998478 -0.08716277
0.12917735 0.055346247 0.0053920387
0.13538066 0.012895107 0.0053758216
0.13340254 -0.0010103893 -0.0048319339
0.13631549 -0.0010080242 -0.023734493
0.13955186 -0.0010059595 -0.044736795
0.14316921 -0.0010030603 -0.068210289
0.14213082 -0.0011497642 0.0044289492
0.073428802 0.024753883 0.0055606556
0.053576607 -0.0011478233 0.00053232192
0.075228654 -0.0011469269 -0.031390127
0.067585081 -0.001145997 -0.047681469
0.018413052 -0.0011447859 -0.045974787
0.1633147 0.011775088 0.005326543
0.16060998 0.00019052505 -0.044176426
0.10952656 0.00019363403 6.3214306e-05
0.10911295 0.0001970911 -0.04777129
0.048683103 0.00020064354 -0.0017199134
0.018541574 0.00020584106 -0.027918583
0.15957052 0.00018876552 -0.034088884
0.13659388 0.00018986226 -0.0034366155
0.11179538 0.00019046306 -0.028666139
0.083197415 0.00019195079 -0.023106351
0.051968183 0.00019358158 -0.087596528
0.013480601 0.00019523143 -0.05373596
0.031549659 -0.001149478 -0.0038856887
0.061905965 -0.0011483334 -0.011437457
0.073729016 -0.0011473988 -0.025566492
0.086799175 -0.0011464643 -0.038194507
0.04394684 -0.001144166 -0.086111508
0.15447058 -0.0011439562 -0.055033781
0.00071782112 0.00018884182 -0.023735719
0.024020424 0.00018994331 -0.042850219
0.049184728 0.0001911354 -0.0063304757
0.078222096 0.0001920557 0.00026270389
0.1119117 0.00019396782 -0.0097931484
0.15126956 0.00019563675 -0.024497861
0.0032435036 0.00018976211 -0.020930171
0.018585578 0.00019277573 -0.040769376
0.13004506 0.087690376 0.0034697198
0.066150725 0.00019954205 -0.063511953
0.10087701 0.00020457745 -0.078645229
0.078918152 0.12108275 -0.090064809
0.087917455 0.071807764 -0.09008722
-0.0053957081 0.064611763 -0.090081215
-0.0013756847 0.036411464 -0.090094335
0.005873065 0.011897507 -0.090105534
0.0030303956 0.00019260883 -0.078247435
0.16019469 0.00020400523 -0.0077712964
0.051191017 0.10381935 -0.090550773
0.071978934 0.06916032 -0.090525277
0.0098887011 0.027021894 -0.090477198
0.014044028 0.0061511612 -0.090460151
0.015092187 0.00018779277 -0.074257478
0.014850931 0.00019464016 -0.046329945
-0.0040849829 0.00020400523 -0.0077713109
0.16379002 0.08322081 -0.09110257
0.05556605 0.032287918 -0.091083504
0.058555648 -0.0010114717 -0.08962822
0.057555724 -0.0010092354 -0.071659543
0.056447688 -0.0010067559 -0.051748358
0.055213124 -0.0010045385 -0.029562201
0.03705696 -0.0010014677 -0.0046864557
0.070807628 0.086722314 -0.091416433
0.082214013 -0.0011483383 -0.085863963
0.10997812 -0.0011479713 -0.080841482
0.11832554 -0.0011464739 -0.065515377
0.075559117 -0.0011449003 -0.019839482
0.15755101 -0.0011439465 -0.032426339
-0.0071521616 0.00018876075 -0.063224539
2.8882027e-05 0.00019190312 -0.027670512
0.037461966 0.00019540786 -0.047404505
0.076316267 0.00019889831 -0.062706985
0.099308826 0.00020331383 -0.035330396
0.14175549 0.00020997047 -0.01258615
0.12115158 -0.0011492301 -0.078577615
0.077628858 -0.0011481667 -0.080024824
0.10449519 -0.0011466122 -0.043569427
0.096294038 -0.0011456775 -0.02793736
0.08523874 -0.0011445808 -0.010548475
0.031590167 -0.0011427307 -0.0014457655
0.15595083 0.00018928052 -0.065050885
0.12263223 0.00019224167 -0.078941368
0.11926723 0.0001953125 -0.034960616
0.080657139 0.00019830704 -0.04811329
0.058707368 0.0002043438 -0.011316588
0.14861077 0.12397598 -0.0092490269
0.083436586 0.12395575 -0.086632363
0.025258532 0.12394482 -0.015602469
0.0024531316 0.12393682 -0.051118862
-0.011595202 0.10184596 -0.021433448
-0.011566706 0.064617969 -0.055840235
0.11898419 0.12396686 -0.047659077
0.050284311 0.12395046 -0.070723265
0.010360727 0.12394109 -0.078220323
-0.011928172 0.12364779 -0.061675314
-0.011944165 0.087149784 -0.061899424
-0.011975961 0.020313049 -0.068295151
0.043725267 0.1247268 -0.077187873
-0.0087607335 0.1247065 -0.070634514
-0.012963748 0.10776839 -0.040239014
-0.012960277 0.084046431 -0.014707212
-0.012955594 0.051976252 -0.062927872
-0.013219928 0.12307131 -0.072586097
-0.013221779 0.10472164 -0.056863137
-0.013219442 0.087642543 -0.00012343885
-0.013231468 0.059394673 -0.079090118
-0.013228483 0.040772554 -0.012128286
-0.013240547 0.0046818783 -0.073337384
-0.01211586 0.10930865 -0.015853202
-0.0077094985 0.094323188 0.0039146971
0.11075687 0.046123773 0.0034335351
-0.012140293 0.057408139 -0.01576354
-0.012160311 0.033137165 -0.025270477
-0.012011137 0.1203073 -0.024009472
-0.012003127 0.098092034 -0.0027203131
-0.012003899 0.0794641 -0.0054671718
-0.0120084 0.060629338 -0.016733039
-0.012013082 0.041014209 -0.02846569
-0.012012434 0.021532254 -0.026972603
0.031764619 0.12443011 -0.077850722
-0.012983808 0.10798416 -0.053538524
-0.012971354 0.086544238 0.0019529057
-0.012979193 0.067870729 -0.087830238
-0.012965126 0.040063694 -0.031823028
-0.012954731 0.0090620611 -0.0041451361
-0.011552496 0.10538469 -0.058553096
-0.011550312 0.086040668 -0.052514497
-0.011555071 0.066155456 -0.064468019
-0.011559639 0.047069553 -0.075941056
-0.011563063 0.028571092 -0.084247723
-0.01152791 0.0016334009 0.0025861026
0.13393082 0.10229792 -0.091408484
0.052212339 0.087496236 -0.091133058
-0.011443558 0.08107949 -0.084170364
-0.011363621 0.052261267 -0.017649209
-0.011417332 0.042211071 -0.079066977
-0.011399489 0.014094643 -0.07696607
-0.012073031 0.039103698 -0.029243117
-0.012048721 0.0084407423 -0.06025134
0.0066793538 0.00018287182 -0.058718223
0.045312382 0.00019062996 -0.034075636
0.093700692 0.00020351887 -0.059817046
-0.011676626 0.11451758 0.003306899
-0.011710119 0.041556489 -0.011455593
-0.011727848 0.0030432176 -0.015009141
0.030705042 0.00018548488 -0.090414718
0.047626082 0.00019438266 -0.0019264364
0.11455278 0.00020998478 -0.016260199
-0.013056588 0.083247617 -0.047625486
-0.013052182 0.049259137 -0.05152816
-0.013048901 0.022590399 -0.086813182
-0.013046451 0.0026636266 -0.032874636
0.023474231 -0.00055927754 -0.026436014
0.13215132 -0.0005185795 -0.022481069
-0.013016243 0.091022186 -0.062003087
-0.01302126 0.064601548 -0.073102012
-0.013022576 0.043757573 -0.050552677
-0.013027963 0.022109337 -0.072064206
-0.013028736 0.0044267941 -0.049681854
0.019823842 0.10809476 -0.091111682
-0.011398444 0.086080112 -0.016186848
-0.01143579 0.058846377 -0.045018941
0.11565756 0.060223546 -0.091409013
0.019407811 0.022313662 -0.091020592
0.0012241697 0.0045246985 -0.090936802
-0.013283186 0.097626835 -0.040304046
-0.013277245 0.07145299 -0.042793714
-0.013267212 0.046734758 -0.011664767
-0.013264179 0.026508613 -0.026778312
-0.013255825 0.0076357699 0.002250328
-0.012252317 0.1152347 -0.062727526
-0.012188974 0.078162387 -0.019482572
-0.012159753 0.055445708 -0.00275316
0.11705384 0.067732848 0.0034554459
-0.012199216 0.025401797 -0.058422226
-0.012169795 0.0074701593 -0.03846018
0.042688623 0.12396656 -0.054659892
0.095745847 0.12395076 -0.01208771
0.14759462 0.12394145 -0.086668164
0.15689138 0.12393385 -0.0019744111
0.16771801 0.10297257 -0.0080172298
0.1676531 0.039082158 -0.019702068
0.064941809 0.12395924 -0.047556043
0.10563488 0.12394726 -0.087427795
0.1595487 0.12393841 0.0012252283
0.16804656 0.10629793 -0.010330918
0.16806942 0.058107968 -0.0048193764
0.041248966 0.12475432 -0.04498978
0.13669977 0.12471738 -0.066253319
0.16907521 0.11984742 -0.047865782
0.169072 0.098034456 -0.014557543
0.16906832 0.072711304 -0.083609045
0.16906273 0.035889775 0.0039355038
0.16932434 0.11750395 -0.081725568
0.16933398 0.096079424 -0.018337244
0.16933967 0.073108926 1.2140274e-05
0.16933952 0.051930901 -0.035391469
0.16934462 0.025025181 -0.032893036
0.16823852 0.11794056 -0.050742012
0.16823484 0.10233042 -0.063246794
0.16821995 0.088360541 -0.087505914
0.0024920178 0.02099042 -0.088952102
0.091188706 0.021587096 -0.089277096
0.14484976 0.018338136 -0.089470625
0.16814362 0.11539111 -0.0050038006
0.16812344 0.091456369 -0.055733908
0.16812836 0.072027057 -0.043440614
0.16813347 0.051755656 -0.030614518
0.1681388 0.030586226 -0.017220221
0.16812214 0.013159619 -0.058727823
0.16908818 0.11893275 -0.088859901
0.16909379 0.10043205 -0.017535595
0.16909184 0.080790132 0.0028172445
0.16908316 0.057214469 -0.021015186
0.16907871 0.032476939 -0.011944375
0.16766056 0.11841863 -0.031664453
0.16766986 0.0958478 -0.0083575873
0.16767421 0.076600321 0.0026087523
0.10712101 0.056600504 0.0055665444
0.16763896 0.037375294 -0.084652282
0.12013027 0.0093958667 0.0055112932
0.16751328 0.12169249 -0.064692765
0.1674933 0.10359072 -0.075049184
0.085350603 0.074944876 0.0055114604
0.16754635 0.073694646 -0.0046399953
0.10910044 0.03341857 0.0054685832
0.16749394 0.026013117 -0.031676233
0.16820873 0.069427907 -0.070968457
0.16817965 0.030214716 -0.026439643
0.16815563 0.001324172 -0.0041697766
0.13769984 0.00018545151 -0.024352422
0.094646111 0.00019490719 -0.039548229
0.025277214 0.00021046639 -0.05249304
0.16780902 0.068301573 -0.059735157
0.16784394 0.0027648353 -0.010459194
0.15241234 0.00018140316 -0.037696663
0.11648642 0.00018907071 -0.015659433
0.06890282 0.00019968509 -0.011780059
0.0028474045 0.00022016525 -0.08003521
0.16916405 0.067572244 -0.0077824662
0.16916043 0.03806163 -0.042850208
0.16915771 0.01461195 -0.059725136
0.16186017 -0.00057015894 -0.089105107
0.10244775 -0.00054788112 -0.04455658
0.1691203 0.11139169 -0.051726695
0.16912201 0.086055793 -0.077671655
0.16913013 0.05717792 -0.036738884
0.16913319 0.03542209 -0.040630054
0.16914052 0.013914084 0.0025862169
0.06662181 -0.00020913123 -0.044693928
0.16755971 0.085729182 -0.0099714994
0.14207773 0.07073915 0.0053514577
0.16754067 0.052311346 -0.04977002
0.014690476 0.053177815 0.0057960367
0.10598836 0.017417226 0.0054276418
0.16939403 0.11297344 -0.063715547
0.16939697 0.089946002 -0.0013382435
0.16938092 0.06026144 -0.068847068
0.1693733 0.037776195 -0.084339142
0.16937332 0.018724408 -0.049536582
0.16936684 0.00050736906 -0.063977644
0.1631963 0.089102879 -0.089574009
0.16837068 0.082452878 0.0031757688
0.16825922 0.047540478 -0.088970207
0.041461874 0.055679325 -0.089176759
0.16831002 0.018256377 -0.022059064
0.1682893 0.0008290243 -0.03341366
0.10750925 0.12481768 -0.015646731
0.090514705 0.11895416 0.004948399
0.1252799 0.08709345 0.0048539517
0.026345363 0.1022595 0.004998262
0.0674721 0.058688074 0.0048765158
-0.0087409401 0.068306826 0.0049846577
0.04655325 0.12464608 -0.088331111
0.021935521 0.12461825 -0.0038580536
0.025009193 0.10919985 0.0047367574
0.11069816 0.057904668 0.0044403169
-0.0080906674 0.086135603 0.0047828867
-0.013293714 0.061634425 -0.0064150239
-0.013333559 0.02594935 -0.0034780479
0.061191186 0.12492756 -0.073361591
0.046387922 0.1249167 -0.031351939
0.14712286 0.049222589 0.0040477943
0.097101822 0.050409902 0.0041668415
-0.013139682 0.085553259 -0.039354049
0.020552497 0.031605784 0.0042968607
0.0082782935 0.12482122 -0.00060110568
0.025017576 0.11172964 0.0059888745
0.044314262 0.096797556 0.0059893895
0.12326265 0.10581601 0.0059013511
0.1260184 0.085115455 0.0059251501
0.16744629 0.0019690036 -0.080255374
-0.0034729005 0.12494843 -0.074480765
0.070751801 0.12492811 -0.034833208
0.11838425 0.12491802 -0.038578261
0.040529527 0.066806085 0.0060983491
0.04318013 0.031363994 0.0061772419
0.16828381 0.10451109 -0.011540187
0.15513723 0.051943637 0.0058961655
0.14613815 0.12463056 -0.070156604
0.16837133 0.1202883 -0.029845655
0.00068709371 0.054476324 0.0063493322
0.13244249 0.081963398 0.0060035731
0.11630087 0.050991844 0.0060859513
0.16816975 0.016434541 -0.05970791
0.049468588 0.12482797 0.0010237122
0.07045839 0.12481125 -0.070236064
0.050531931 0.12269207 -0.091597006
0.0062625646 0.12149002 -0.091555484
0.032148775 0.09041898 -0.091620944
0.06264817 0.046540912 -0.091707222
0.046934158 0.0029430627 -0.09174864
0.082646027 0.1249314 -0.023050623
0.044883851 0.12492029 -0.043057624
-0.007479582 0.12491298 -0.018848667
-0.010386772 0.12490522 -0.055942889
-0.012151174 0.10258028 -0.060220957
0.017961407 0.047470063 -0.091643125
0.032146424 0.12463948 -0.0073072338
-0.012236276 0.12151075 -0.041362811
0.14720295 0.064904317 -0.092014864
0.035991568 0.082103938 -0.091732331
-0.012061458 0.04711986 -0.0037559748
-0.012228141 0.058168445 -0.084271029
0.025233893 0.12483426 -0.023624457
0.043894652 0.12481529 -0.083001845
0.048271924 0.10995123 -0.090613365
0.16945553 0.08474189 -0.010343513
0.083099231 0.077816099 -0.090601727
0.16931053 0.078341022 -0.071802005
0.083110459 0.0062427521 -0.090484105
0.062897295 0.12464114 -0.078232192
0.080138534 0.11035258 -0.090310961
0.036234893 0.075617962 -0.090145923
0.16938174 0.094094217 -0.068237603
0.056914378 0.028435947 -0.090122968
0.16938972 0.060823843 -0.087873593
-0.0037561988 0.12494346 -0.047255937
0.010897884 0.10768611 -0.089912854
0.073243998 0.11486837 -0.090076923
0.14385709 0.12490814 -0.063710004
0.15755121 0.12490202 -0.082793213
0.16920443 0.097499736 -0.070042059
0.16925922 0.05596881 -0.084604979
0.084141701 0.10432605 -0.091892384
-0.011636791 0.064685762 -0.037827805
0.14202602 0.06472785 -0.091898516
0.041768972 0.0052495003 -0.091684066
0.04023163 -0.00064684392 -0.067234002
0.05832614 -0.00063412666 -0.033022948
-0.012208824 0.10401361 -0.065179899
0.055922963 0.093175925 -0.091921352
-0.012250995 0.050727401 -0.050730258
0.05219017 0.040879212 -0.091828443
0.0018201447 0.0060250377 -0.091645852
0.017424364 -0.0004564047 -0.068155229
0.10967222 -0.00041686534 -0.038053833
-0.012280927 0.021686537 -0.090077132
0.0015576648 0.0035991573 -0.091494977
-0.0072410824 -0.0007838392 -0.050528258
0.036381513 -0.00077503204 -0.066162333
0.025651965 -0.00076890946 -0.0020075608
0.085798673 -0.00075385568 -0.00012668609
0.11747263 0.094530851 -0.090681374
0.149535 0.038172457 -0.090788744
0.087726466 0.044067383 -0.090720147
0.14969108 -0.00065982819 -0.088813044
0.11400411 -0.00065111159 -0.079725206
0.095000058 -0.0006396675 -0.050025024
0.046705317 -0.00061600207 -0.0017404318
0.15881251 0.030846527 -0.090288706
0.16924873 0.0020888711 -0.070984423
0.13075407 -0.00017526626 -0.090304948
0.13498266 -0.00077620981 -0.04145278
0.057410739 0.0014041328 -0.090149671
0.049382925 -0.00075131893 -0.014066543
0.16956173 0.092840709 -0.049511742
0.1019857 0.081462689 -0.090322867
0.12086667 0.047588378 -0.090416394
0.16952065 0.029040702 -0.024423828
0.16939104 -4.3582917e-05 -0.071260937
0.13807267 -0.00044234752 -0.023756897
0.0210035 0.10290625 0.0049871923
0.027677445 0.058646496 0.0050401879
0.001247735 0.019876389 0.005118046
-0.013286242 0.023400875 -0.041273512
0.024325095 -0.00065402029 -0.0068797399
0.04401198 -0.00064352987 -0.032701112
0.1432469 -0.00062862394 -0.021440759
-0.013372302 0.088713244 -0.055551328
-0.013231502 0.029955657 -0.04136508
0.15117511 0.11237416 0.004069109
0.0557434 0.0062011862 0.0045265197
0.028589029 -0.00077102182 -0.069833897
0.088127859 -0.00075807096 -0.062175158
-0.013411965 0.092833325 -0.01491419
0.025381159 0.073873661 0.0046999957
-0.01345593 0.058010992 -0.063750342
0.018291378 0.026779499 0.0047856355
0.084817342 0.029147316 0.0046285177
0.099804744 0.011693754 0.0046196389
0.15097161 -0.0004068327 -0.035813734
0.057709467 0.10977598 0.0062178802
0.14124297 0.033449735 0.0059967134
0.14935628 0.0093161296 0.0059484006
0.03906332 0.028913682 0.0061109448
0.060473777 0.0023294259 0.006043334
0.039232358 -0.00063282967 -0.020829024
0.14751582 0.097924121 0.0061089657
0.065941669 0.11065537 0.0063349437
0.15784496 0.03723133 0.0059863757
-0.0017370891 0.078327209 0.0064532757
0.090725347 0.023114644 0.0061323498
0.10139766 0.0017053938 0.0060712718
0.041742105 -0.0004114914 -0.059543751
0.1683746 0.02621422 -0.0032010961
0.12278189 0.031629018 0.0059435056
0.14503206 -0.0007821655 -0.013656638
0.087199591 0.0060066748 0.0059584309
0 0 0
