# .PCD v0.7 - Point Cloud Data file format
VERSION 0.7
FIELDS x y z rgba
SIZE 4 4 4 4
TYPE F F F U
COUNT 1 1 1 1
WIDTH 1069
HEIGHT 1
VIEWPOINT 0 0 0 1 0 0 0
POINTS 1069
DATA ascii
0.12820017 0.1838389 0.99700004 4282993481
0.13034374 0.18420769 0.99900007 4284309341
0.1319654 0.1838389 0.99700004 4288322714
0.13357951 0.18347013 0.99500006 4291414986
0.13545835 0.18347013 0.99500006 4290888129
0.13719916 0.18328573 0.99400002 4283321934
0.13921602 0.18347013 0.99500006 4282861381
0.14109486 0.18347013 0.99500006 4287203719
0.14283001 0.18328573 0.99400002 4288782751
0.14470696 0.18328573 0.99400002 4285230442
0.14673138 0.18347013 0.99500006 4284769891
0.14875957 0.18365452 0.99600005 4288256920
0.1509428 0.18402329 0.99800003 4288585885
0.15267415 0.1838389 0.99700004 4283519824
0.15455678 0.1838389 0.99700004 4285559919
0.15628248 0.18365452 0.99600005 4290296501
0.1580044 0.18347013 0.99500006 4290888384
0.16004394 0.18365452 0.99600005 4290296503
0.16208723 0.1838389 0.99700004 4287598990
0.16429877 0.18420769 0.99900007 4282467136
0.16635151 0.18439208 1 4282532673
0.16807155 0.18420769 0.99900007 4287203719
0.16944757 0.18365452 0.99600005 4289045925
0.17098425 0.18328573 0.99400002 4289901233
0.1728612 0.18328573 0.99400002 4285427308
0.17456236 0.18310133 0.99300003 4288059028
0.17625974 0.18291694 0.99200004 4290822077
0.17813291 0.18291694 0.99200004 4290822077
0.18000609 0.18291694 0.99200004 4287795856
0.18206261 0.18310133 0.99300003 4283124807
0.18393767 0.18310133 0.99300003 4282663745
0.1863741 0.18365452 0.99600005 4284900964
0.18863285 0.18402329 0.99800003 4288322200
0.19070825 0.18420769 0.99900007 4287270025
0.19278742 0.18439208 1 4284309340
0.19656397 0.18439208 1 4286546302
0.19825381 0.18420769 0.99900007 4289572780
0.19993986 0.18402329 0.99800003 4290757054
-0.19797488 0.1844137 0.99000007 4288848797
-0.19610548 0.1844137 0.99000007 4288717211
-0.19423608 0.1844137 0.99000007 4290098864
-0.19236669 0.1844137 0.99000007 4290954173
-0.1906897 0.18459997 0.99100006 4286677628
-0.1886279 0.1844137 0.99000007 4289440934
-0.18638119 0.18404113 0.98800004 4289046433
-0.18451558 0.18404113 0.98800004 4287270278
-0.18264996 0.18404113 0.98800004 4289704619
-0.18096732 0.18422741 0.98900002 4285164646
-0.17928091 0.1844137 0.99000007 4281809460
-0.17759071 0.18459997 0.99100006 4287927953
-0.17571943 0.18459997 0.99100006 4290823101
-0.17384814 0.18459997 0.99100006 4284769889
-0.1721504 0.18478625 0.99200004 4286217335
-0.17027722 0.18478625 0.99200004 4291349191
-0.16857381 0.18497251 0.99300003 4287203719
-0.16686663 0.1851588 0.99400002 4283387725
-0.16515566 0.18534507 0.99500006 4284111448
-0.16327684 0.18534507 0.99500006 4285953652
-0.16123578 0.1851588 0.99400002 4288651166
-0.15919851 0.18497251 0.99300003 4286545790
-0.15732345 0.18497251 0.99300003 4285098343
-0.15544838 0.18497251 0.99300003 4285098085
-0.15326402 0.18459997 0.99100006 4287335046
-0.15108719 0.18422741 0.98900002 4289769387
-0.14921969 0.18422741 0.98900002 4290690489
-0.14750117 0.1844137 0.99000007 4289637801
-0.14592598 0.18478625 0.99200004 4284111445
-0.14434324 0.1851588 0.99400002 4285295718
-0.14260961 0.18534507 0.99500006 4288322453
-0.1404479 0.18497251 0.99300003 4289045920
-0.13829373 0.18459997 0.99100006 4290559159
-0.13614713 0.18422741 0.98900002 4291019709
-0.13427962 0.18422741 0.98900002 4286874751
-0.13254601 0.1844137 0.99000007 4283190342
-0.13120459 0.1851588 0.99400002 4284967010
-0.12984806 0.18590389 0.99800003 4287598731
-0.1280918 0.18609019 0.99900007 4282927427
-0.12595274 0.18571763 0.99700004 4281019430
-0.12357235 0.18497251 0.99300003 4286085491
-0.12157474 0.18478625 0.99200004 4290164657
-0.11970156 0.18478625 0.99200004 4288454039
-0.11794717 0.18497251 0.99300003 4285888113
-0.116189 0.1851588 0.99400002 4285361768
-0.11408205 0.18478625 0.99200004 4284901217
-0.11198264 0.1844137 0.99000007 4284967010
-0.11000202 0.18422741 0.98900002 4286743421
-0.10802518 0.18404113 0.98800004 4288519832
-0.10615955 0.18404113 0.98800004 4289046176
-0.10439949 0.18422741 0.98900002 4290164658
-0.10263566 0.1844137 0.99000007 4288717470
-0.10086805 0.18459997 0.99100006 4287204491
-0.088307917 0.16466838 0.88400006 4286875785
-0.086050622 0.16355073 0.87800002 4287138959
-0.084104359 0.1629919 0.87500006 4287533975
-0.082169421 0.16243306 0.87200004 4287337366
-0.080338158 0.16206051 0.87000006 4287468952
-0.078333534 0.16131541 0.86600006 4287403672
-0.076255456 0.16038403 0.86100006 4287337879
-0.074282937 0.15963893 0.85700005 4287535258
-0.07257989 0.15945265 0.85600007 4287337879
-0.070714824 0.15889381 0.85300004 4287403929
-0.068861082 0.15833499 0.85000002 4287469722
-0.067097798 0.15796243 0.84800005 4287469465
-0.065110356 0.15703104 0.84300005 4287798430
-0.063443184 0.15684478 0.84200007 4287732124
-0.061632875 0.15628594 0.83900005 4287797917
-0.059833895 0.15572712 0.83600003 4287665561
-0.058115926 0.15535456 0.83400005 4288455077
-0.056337714 0.15479574 0.83100003 4292205021
-0.054702647 0.15460946 0.83000004 4294573311
-0.053007338 0.15423691 0.82800007 4294770431
-0.051319584 0.15386434 0.82600003 4294835967
-0.049699623 0.15367807 0.82500005 4294835967
-0.048083439 0.1534918 0.82400006 4294836222
-0.046527497 0.1534918 0.82400006 4294901502
-0.044971555 0.1534918 0.82400006 4294901502
-0.043415613 0.1534918 0.82400006 4294901502
-0.04191047 0.15367807 0.82500005 4294901502
-0.040352643 0.15367807 0.82500005 4294901502
-0.038747787 0.1534918 0.82400006 4294901502
-0.037191845 0.1534918 0.82400006 4294901502
-0.035635903 0.1534918 0.82400006 4294901502
-0.03412132 0.15367807 0.82500005 4294901502
-0.032563489 0.15367807 0.82500005 4294901502
-0.031043245 0.15386434 0.82600003 4294901502
-0.029519219 0.15405063 0.82700002 4294836222
-0.027957613 0.15405063 0.82700002 4294836222
-0.026396006 0.15405063 0.82700002 4294836222
-0.024804369 0.15386434 0.82600003 4294836222
-0.023244651 0.15386434 0.82600003 4294836222
-0.021684932 0.15386434 0.82600003 4294836222
-0.020125214 0.15386434 0.82600003 4294836222
-0.018587971 0.15405063 0.82700002 4294836222
-0.017046953 0.15423691 0.82800007 4294901502
-0.015502159 0.15442318 0.82900006 4294901502
-0.013936775 0.15442318 0.82900006 4294901502
-0.012371391 0.15442318 0.82900006 4294836222
-0.010819043 0.15460946 0.83000004 4294836222
-0.0092629176 0.15479574 0.83100003 4294835967
-0.0077307918 0.15554084 0.83500004 4294835967
-0.0061909296 0.15647222 0.84000003 4294835967
-0.0046321847 0.15740362 0.84500003 4291743700
-0.0030365889 0.15740362 0.84500003 4284243298
0.020849261 0.18534507 0.99500006 4283453781
0.022659572 0.18478625 0.99200004 4290559168
0.024532745 0.18478625 0.99200004 4289309099
0.026379298 0.18459997 0.99100006 4289243306
0.028250583 0.18459997 0.99100006 4289374892
0.030121868 0.18459997 0.99100006 4285558896
0.032057717 0.18497251 0.99300003 4290032820
0.033966955 0.1851588 0.99400002 4290164662
0.035843901 0.1851588 0.99400002 4285690741
0.037720852 0.1851588 0.99400002 4289769907
0.039637636 0.18534507 0.99500006 4285164397
0.041516475 0.18534507 0.99500006 4283190607
0.043308087 0.18497251 0.99300003 4283059021
0.045092143 0.18459997 0.99100006 4291875026
0.046868648 0.18422741 0.98900002 4290493373
0.048736159 0.18422741 0.98900002 4283716694
0.050603665 0.18422741 0.98900002 4291348682
0.052577283 0.18459997 0.99100006 4290427580
0.054503508 0.18478625 0.99200004 4284966761
0.056490347 0.1851588 0.99400002 4283256143
0.058484733 0.18553135 0.99600005 4284243038
0.060365461 0.18553135 0.99600005 4286808710
0.062246181 0.18553135 0.99600005 4288321949
0.064062528 0.18534507 0.99500006 4285164140
0.065875091 0.1851588 0.99400002 4284966761
0.067752041 0.1851588 0.99400002 4287598481
0.069628991 0.1851588 0.99400002 4289506732
0.071505941 0.1851588 0.99400002 4290230712
0.07345672 0.18534507 0.99500006 4288980645
0.07541126 0.18553135 0.99600005 4285164651
0.077369593 0.18571763 0.99700004 4283322447
0.079252206 0.18571763 0.99700004 4287598992
0.080972068 0.18534507 0.99500006 4288651680
0.0826011 0.18478625 0.99200004 4289901491
0.084474273 0.18478625 0.99200004 4290230456
0.086347446 0.18478625 0.99200004 4286019704
0.088309549 0.18497251 0.99300003 4283190606
0.090275437 0.1851588 0.99400002 4285822327
0.092245094 0.18534507 0.99500006 4288125082
0.09412393 0.18534507 0.99500006 4283453521
0.09590628 0.1851588 0.99400002 4281479732
0.097684853 0.18497251 0.99300003 4286940551
0.099559918 0.18497251 0.99300003 4291151303
0.10133283 0.18478625 0.99200004 4289309610
0.103206 0.18478625 0.99200004 4286283132
0.1051851 0.18497251 0.99300003 4285493616
0.10716798 0.1851588 0.99400002 4285362030
0.10882552 0.18478625 0.99200004 4285230444
0.1105871 0.18459997 0.99100006 4287467406
0.11223143 0.18422741 0.98900002 4288914852
0.11398356 0.18404113 0.98800004 4289045925
0.11584919 0.18404113 0.98800004 4290032819
0.11771481 0.18404113 0.98800004 4289243303
0.11970146 0.18422741 0.98900002 4286085238
0.12156897 0.18422741 0.98900002 4282598209
0.1238109 0.18478625 0.99200004 4288125334
0.12606417 0.18534507 0.99500006 4285362028
0.12832877 0.18590389 0.99800003 4282598722
0.13047421 0.18627645 1 4282993480
0.13236248 0.18627645 1 4287072646
0.13357951 0.18534507 0.99500006 4290691263
0.13532221 0.1851588 0.99400002 4291348680
0.13706115 0.18497251 0.99300003 4287927444
0.13879628 0.18478625 0.99200004 4282861381
0.14081126 0.18497251 0.99300003 4285164136
0.14254263 0.18478625 0.99200004 4288387993
0.1445614 0.18497251 0.99300003 4285756787
0.14658391 0.1851588 0.99400002 4284967272
0.14861022 0.18534507 0.99500006 4285494128
0.15064031 0.18553135 0.99600005 4287928725
0.15252103 0.18553135 0.99600005 4284310110
0.15440176 0.18553135 0.99600005 4282796869
0.15612556 0.18534507 0.99500006 4288389018
0.15784562 0.1851588 0.99400002 4290625468
0.15988325 0.18534507 0.99500006 4289901745
0.16192466 0.18553135 0.99600005 4288980643
0.16413432 0.18590389 0.99800003 4283519822
0.16635151 0.18627645 1 4281545778
0.16823979 0.18627645 1 4283453518
0.16944757 0.18553135 0.99600005 4288256409
0.17098425 0.1851588 0.99400002 4290954177
0.17268731 0.18497251 0.99300003 4287006338
0.17438656 0.18478625 0.99200004 4285558892
0.17608206 0.18459997 0.99100006 4291019455
0.17795335 0.18459997 0.99100006 4290953663
0.17982464 0.18459997 0.99100006 4290295733
0.18169592 0.18459997 0.99100006 4284374620
0.1835672 0.18459997 0.99100006 4282992708
0.18599986 0.1851588 0.99400002 4283256393
0.1876878 0.18497251 0.99300003 4286808961
0.18975376 0.1851588 0.99400002 4288914850
0.19182348 0.18534507 0.99500006 4285756786
0.19389701 0.18553135 0.99600005 4285033063
0.19577773 0.18553135 0.99600005 4284835684
0.19765845 0.18553135 0.99600005 4288388506
0.19933884 0.18534507 0.99500006 4290296503
-0.19944054 0.18590289 0.98800004 4288322453
-0.19697501 0.18533842 0.98500007 4290296243
-0.19511504 0.18533842 0.98500007 4289177762
-0.1932551 0.18533842 0.98500007 4290756794
-0.19139513 0.18533842 0.98500007 4289309091
-0.18992002 0.18571474 0.98700005 4286282613
-0.18805629 0.18571474 0.98700005 4289835179
-0.18600391 0.18552658 0.98600006 4286677628
-0.18432882 0.18571474 0.98700005 4287072899
-0.18228023 0.18552658 0.98600006 4288980896
-0.1802354 0.18533842 0.98500007 4283388491
-0.17855653 0.18552658 0.98600006 4281677873
-0.17687391 0.18571474 0.98700005 4288849310
-0.17501017 0.18571474 0.98700005 4289638826
-0.17297101 0.18552658 0.98600006 4284638558
-0.17128271 0.18571474 0.98700005 4289112227
-0.16959062 0.18590289 0.98800004 4291282885
-0.16789477 0.18609105 0.98900002 4286151031
-0.166363 0.18646738 0.99100006 4282795588
-0.16465771 0.18665554 0.99200004 4284374620
-0.16212814 0.18590289 0.98800004 4286545789
-0.16010033 0.18571474 0.98700005 4288519579
-0.15807626 0.18552658 0.98600006 4285953395
-0.15621442 0.18552658 0.98600006 4284440155
-0.15450913 0.18571474 0.98700005 4285361256
-0.15249074 0.18552658 0.98600006 4288519319
-0.15047613 0.18533842 0.98500007 4289900972
-0.14861618 0.18533842 0.98500007 4290229937
-0.14675622 0.18533842 0.98500007 4289834922
-0.14519046 0.18571474 0.98700005 4284571739
-0.14347194 0.18590289 0.98800004 4285821806
-0.14174965 0.18609105 0.98900002 4288519319
-0.13959928 0.18571474 0.98700005 4288848284
-0.13759598 0.18552658 0.98600006 4290887867
-0.13559648 0.18533842 0.98500007 4290427316
-0.13373654 0.18533842 0.98500007 4286150771
-0.13201046 0.18552658 0.98600006 4282795842
-0.1305446 0.18609105 0.98900002 4285888113
-0.12906742 0.18665554 0.99200004 4287796110
-0.12745069 0.18703187 0.99400002 4282466877
-0.12519474 0.18646738 0.99100006 4281282603
-0.12282569 0.18571474 0.98700005 4288519833
-0.12096196 0.18571474 0.98700005 4289835693
-0.11933956 0.18609105 0.98900002 4288454040
-0.11759083 0.18627922 0.99000007 4285361769
-0.11583833 0.18646738 0.99100006 4284835425
-0.11373703 0.18609105 0.98900002 4284769632
-0.11186953 0.18609105 0.98900002 4284440667
-0.10966834 0.18552658 0.98600006 4287203972
-0.10758782 0.18515025 0.98400003 4287993488
-0.10572976 0.18515025 0.98400003 4289177762
-0.1038717 0.18515025 0.98400003 4290822845
-0.1021173 0.18533842 0.98500007 4289178022
-0.10025734 0.18533842 0.98500007 4287204491
-0.088307917 0.16633417 0.88400006 4286941835
-0.086050622 0.16520521 0.87800002 4287270802
-0.084104359 0.16464072 0.87500006 4287468182
-0.082169421 0.16407624 0.87200004 4287403159
-0.080338158 0.16369992 0.87000006 4287534745
-0.078423992 0.16313544 0.86700004 4287468952
-0.076432593 0.16238278 0.86300004 4287535002
-0.074369617 0.16144198 0.85800004 4287535258
-0.07257989 0.16106567 0.85600007 4287469465
-0.070714824 0.16050118 0.85300004 4287535515
-0.068861082 0.15993671 0.85000002 4287601308
-0.067097798 0.15956038 0.84800005 4287535515
-0.065187588 0.15880774 0.84400004 4287864223
-0.063518532 0.15861958 0.84300005 4287732124
-0.061706334 0.15805508 0.84000003 4287732124
-0.059905466 0.15749061 0.83700001 4287929503
-0.058255292 0.15730245 0.83600003 4287928990
-0.056473304 0.15673797 0.83300006 4287862940
-0.054702647 0.15617348 0.83000004 4291547348
-0.053007338 0.15579717 0.82800007 4294441726
-0.051319584 0.15542084 0.82600003 4294705151
-0.049699623 0.15523268 0.82500005 4294835967
-0.048083439 0.15504453 0.82400006 4294835967
-0.04647103 0.15485637 0.82300001 4294836222
-0.044916976 0.15485637 0.82300001 4294836222
-0.043362923 0.15485637 0.82300001 4294901502
-0.041859671 0.15504453 0.82400006 4294901502
-0.040303729 0.15504453 0.82400006 4294901502
-0.038700763 0.15485637 0.82300001 4294901502
-0.03714671 0.15485637 0.82300001 4294901502
-0.035592653 0.15485637 0.82300001 4294901502
-0.0340386 0.15485637 0.82300001 4294901502
-0.032524019 0.15504453 0.82400006 4294901502
-0.03100566 0.15523268 0.82500005 4294901502
-0.029483525 0.15542084 0.82600003 4294836222
-0.027957613 0.15560901 0.82700002 4294836222
-0.026364088 0.15542084 0.82600003 4294836222
-0.024774341 0.15523268 0.82500005 4294836222
-0.023188369 0.15504453 0.82400006 4294836222
-0.021632427 0.15504453 0.82400006 4294836222
-0.020100851 0.15523268 0.82500005 4294836222
-0.01854302 0.15523268 0.82500005 4294836221
-0.017026365 0.15560901 0.82700002 4294836221
-0.015483459 0.15579717 0.82800007 4294836222
-0.013919964 0.15579717 0.82800007 4294836222
-0.012371391 0.15598533 0.82900006 4294835967
-0.010819043 0.15617348 0.83000004 4294835967
-0.0092629176 0.15636165 0.83100003 4294835967
-0.0077307918 0.15711428 0.83500004 4294770175
-0.0061983 0.15824327 0.84100002 4294835966
-0.0046321847 0.15899591 0.84500003 4287993499
-0.0030365889 0.15899591 0.84500003 4284506470
0.017074408 0.18703187 0.99400002 4288651428
0.019027621 0.18778451 0.99800003 4283650903
0.020786399 0.18665554 0.99200004 4283058510
0.022591043 0.18609105 0.98900002 4290624705
0.024458552 0.18609105 0.98900002 4289177259
0.026299441 0.18590289 0.98800004 4288914341
0.028136555 0.18571474 0.98700005 4289967029
0.030030681 0.18590289 0.98800004 4285164138
0.031928584 0.18609105 0.98900002 4288387995
0.033796094 0.18609105 0.98900002 4288914339
0.035699658 0.18627922 0.99000007 4283914071
0.037569057 0.18627922 0.99000007 4289046184
0.039438453 0.18627922 0.99000007 4285032812
0.041307848 0.18627922 0.99000007 4282795849
0.043002792 0.18552658 0.98600006 4282795849
0.044819131 0.18533842 0.98500007 4291414475
0.046631701 0.18515025 0.98400003 4290624959
0.048539042 0.18533842 0.98500007 4283914073
0.050450165 0.18552658 0.98600006 4290756545
0.052418116 0.18590289 0.98800004 4289572271
0.054393623 0.18627922 0.99000007 4284374624
0.056263018 0.18627922 0.99000007 4283321936
0.058132414 0.18627922 0.99000007 4284243295
0.059880596 0.18590289 0.98800004 4285559155
0.061746214 0.18590289 0.98800004 4288256668
0.063611835 0.18590289 0.98800004 4286019449
0.065477453 0.18590289 0.98800004 4285229933
0.067411236 0.18609105 0.98900002 4287335309
0.069278747 0.18609105 0.98900002 4289638063
0.071218193 0.18627922 0.99000007 4290230199
0.073087588 0.18627922 0.99000007 4289177511
0.075032696 0.18646738 0.99100006 4287269514
0.076981582 0.18665554 0.99200004 4283782485
0.078854755 0.18665554 0.99200004 4288256922
0.080565169 0.18627922 0.99000007 4288651423
0.082184762 0.18571474 0.98700005 4289703853
0.084048495 0.18571474 0.98700005 4290295990
0.085999273 0.18590289 0.98800004 4285493101
0.087864891 0.18590289 0.98800004 4283848277
0.089730509 0.18590289 0.98800004 4283782998
0.091688842 0.18609105 0.98900002 4287401613
0.093650945 0.18627922 0.99000007 4284177243
0.095423855 0.18609105 0.98900002 4281611316
0.097094618 0.18571474 0.98700005 4285229931
0.098858081 0.18552658 0.98600006 4291480266
0.10071993 0.18552658 0.98600006 4289835954
0.10258177 0.18552658 0.98600006 4287730578
0.10444361 0.18552658 0.98600006 4285822581
0.10641328 0.18571474 0.98700005 4285362030
0.108277 0.18571474 0.98700005 4284901991
0.11002914 0.18552658 0.98600006 4286152315
0.11189099 0.18552658 0.98600006 4287796370
0.11375283 0.18552658 0.98600006 4287993748
0.11549742 0.18533842 0.98500007 4289440681
0.11735737 0.18533842 0.98500007 4289835439
0.11933836 0.18552658 0.98600006 4287466891
0.12132312 0.18571474 0.98700005 4282927174
0.12368609 0.18646738 0.99100006 4287861649
0.12593748 0.18703187 0.99400002 4287598990
0.12781443 0.18703187 0.99400002 4282861894
0.13034374 0.18797268 0.99900007 4284243547
0.1319654 0.18759634 0.99700004 4286743681
0.13317676 0.18665554 0.99200004 4290493371
0.13464153 0.18609105 0.98900002 4290756543
0.13623297 0.18571474 0.98700005 4290756545
0.1379568 0.18552658 0.98600006 4283387726
0.13996044 0.18571474 0.98700005 4283585106
0.14182417 0.18571474 0.98700005 4287927957
0.14383349 0.18590289 0.98800004 4287006855
0.14599404 0.18627922 0.99000007 4284770150
0.1480128 0.18646738 0.99100006 4284639077
0.15003532 0.18665554 0.99200004 4285560434
0.15206164 0.18684369 0.99300003 4286152571
0.15409172 0.18703187 0.99400002 4282665283
0.15596867 0.18703187 0.99400002 4286020728
0.15768681 0.18684369 0.99300003 4290230710
0.15956187 0.18684369 0.99300003 4290822847
0.16143695 0.18684369 0.99300003 4289638573
0.16347645 0.18703187 0.99400002 4286480507
0.16551976 0.18722002 0.99500006 4281611825
0.16773507 0.18759634 0.99700004 4282927685
0.1691073 0.18703187 0.99400002 4287467404
0.17046821 0.18646738 0.99100006 4290822845
0.1723395 0.18646738 0.99100006 4288717469
0.17403498 0.18627922 0.99000007 4285230183
0.1757267 0.18609105 0.98900002 4289835180
0.1775942 0.18609105 0.98900002 4290756284
0.1790988 0.18571474 0.98700005 4290822077
0.18077919 0.18552658 0.98600006 4285493101
0.18245579 0.18533842 0.98500007 4282993221
0.18487713 0.18590289 0.98800004 4282730049
0.18712075 0.18627922 0.99000007 4285558894
0.18918106 0.18646738 0.99100006 4288651678
0.19124512 0.18665554 0.99200004 4286414716
0.19331297 0.18684369 0.99300003 4284901477
0.19518805 0.18684369 0.99300003 4284506719
0.1970631 0.18684369 0.99300003 4287598990
0.19873782 0.18665554 0.99200004 4290099124
-0.19822936 0.18662439 0.98200005 4290954174
-0.19577515 0.18605424 0.97900003 4289967279
-0.19412461 0.18624431 0.98000002 4288783005
-0.19227409 0.18624431 0.98000002 4289967278
-0.19061789 0.18643434 0.98100007 4287006593
-0.18895791 0.18662439 0.98200005 4288585625
-0.18748468 0.18700448 0.98400003 4290033071
-0.18562663 0.18700448 0.98400003 4284572252
-0.18395531 0.18719453 0.98500007 4288454039
-0.18209536 0.18719453 0.98500007 4287401864
-0.18005241 0.18700448 0.98400003 4281875252
-0.17801325 0.18681443 0.98300004 4283651663
-0.17597789 0.18662439 0.98200005 4290559928
-0.1741236 0.18662439 0.98200005 4287994001
-0.17209387 0.18643434 0.98100007 4284375386
-0.17058854 0.18681443 0.98300004 4289243813
-0.16890402 0.18700448 0.98400003 4288191125
-0.16738547 0.18738458 0.98600006 4284901476
-0.16569151 0.18757461 0.98700005 4282796101
-0.16349581 0.18719453 0.98500007 4284308827
-0.16097946 0.18643434 0.98100007 4287137927
-0.15896486 0.18624431 0.98000002 4287664270
-0.15695402 0.18605424 0.97900003 4285822066
-0.15526383 0.18624431 0.98000002 4284703328
-0.15341333 0.18624431 0.98000002 4286216565
-0.15156281 0.18624431 0.98000002 4289374629
-0.14971229 0.18624431 0.98000002 4290295731
-0.14786178 0.18624431 0.98000002 4289900972
-0.14601126 0.18624431 0.98000002 4288650905
-0.14445496 0.18662439 0.98200005 4284834911
-0.14274587 0.18681443 0.98300004 4287532424
-0.14088969 0.18681443 0.98300004 4288519319
-0.13889208 0.18662439 0.98200005 4288782492
-0.13689823 0.18643434 0.98100007 4289966766
-0.13504584 0.18643434 0.98100007 4288124818
-0.13319343 0.18643434 0.98100007 4284309081
-0.13134104 0.18643434 0.98100007 4283519565
-0.12962063 0.18662439 0.98200005 4287796110
-0.12815668 0.18719453 0.98500007 4287664524
-0.12655315 0.18757461 0.98700005 4282335291
-0.12405776 0.18662439 0.98200005 4282072376
-0.12207903 0.18643434 0.98100007 4287862160
-0.12022663 0.18643434 0.98100007 4288651676
-0.11861556 0.18681443 0.98300004 4288190868
-0.11699694 0.18719453 0.98500007 4285427562
-0.11537077 0.18757461 0.98700005 4284967011
-0.11339203 0.18738458 0.98600006 4284638046
-0.11141707 0.18719453 0.98500007 4285558635
-0.10933467 0.18681443 0.98300004 4287927182
-0.10725982 0.18643434 0.98100007 4288190354
-0.10529996 0.18624431 0.98000002 4288980383
-0.10344945 0.18624431 0.98000002 4290756795
-0.10159893 0.18624431 0.98000002 4288980643
-0.099850208 0.18643434 0.98100007 4286020476
-0.088507704 0.16838004 0.88600004 4286941837
-0.086834684 0.16838004 0.88600004 4287468181
-0.084008247 0.1660995 0.87400001 4287599768
-0.082075194 0.16552937 0.87100005 4287403159
-0.080338158 0.16533932 0.87000006 4287468952
-0.078423992 0.16476919 0.86700004 4287403672
-0.076521158 0.16419905 0.86400002 4287666844
-0.074369617 0.16305877 0.85800004 4287535515
-0.072664678 0.16286874 0.85700005 4287667101
-0.070714824 0.16210856 0.85300004 4287667101
-0.068699054 0.16115832 0.84800005 4287536285
-0.067018665 0.16096829 0.84700006 4287798687
-0.065033108 0.16001806 0.84200007 4287732894
-0.063367836 0.15982802 0.84100002 4287864223
-0.061632875 0.15944792 0.83900005 4287798174
-0.059905466 0.15906784 0.83700001 4287732380
-0.058255292 0.15887779 0.83600003 4287863710
-0.056473304 0.15830766 0.83300006 4287994527
-0.054702647 0.15773751 0.83000004 4287862428
-0.052943319 0.15716739 0.82700002 4290230975
-0.051071063 0.15621716 0.82200003 4293652211
-0.049579136 0.15640721 0.82300001 4294770431
-0.047908381 0.15602711 0.82100004 4294835967
-0.046301633 0.15583706 0.82000005 4294835967
-0.044753246 0.15583706 0.82000005 4294836222
-0.043152168 0.15564702 0.81900007 4294836222
-0.04160567 0.15564702 0.81900007 4294901502
-0.040059168 0.15564702 0.81900007 4294901501
-0.03851267 0.15564702 0.81900007 4294901502
-0.036921032 0.15545698 0.81800002 4294901502
-0.035376422 0.15545698 0.81800002 4294901503
-0.033873167 0.15564702 0.81900007 4294901502
-0.032366134 0.15583706 0.82000005 4294901502
-0.030892912 0.15621716 0.82200003 4294836222
-0.02919797 0.15545698 0.81800002 4294836222
-0.027653357 0.15545698 0.81800002 4294836222
-0.026108745 0.15545698 0.81800002 4294836222
-0.024624193 0.15583706 0.82000005 4294836222
-0.023075804 0.15583706 0.82000005 4294836222
-0.021501163 0.15564702 0.81900007 4294836222
-0.02000339 0.15602711 0.82100004 4294836222
-0.01847559 0.15621716 0.82200003 4294901502
-0.016944014 0.15640721 0.82300001 4294901502
-0.015408659 0.15659724 0.82400006 4294901502
-0.013869529 0.15678729 0.82500005 4294836222
-0.012311698 0.15678729 0.82500005 4294835967
-0.010766904 0.15697733 0.82600003 4294835967
-0.0092183314 0.15716739 0.82700002 4294835967
-0.0077030165 0.15811761 0.83200002 4294835967
-0.0062130401 0.16020811 0.84300005 4294046453
-0.0046431487 0.16096829 0.84700006 4284703849
-0.0030437761 0.16096829 0.84700006 4284900973
0.017074408 0.18890494 0.99400002 4288848807
0.018951356 0.18890494 0.99400002 4283519574
0.020723537 0.18795469 0.98900002 4282532679
0.022522518 0.18738458 0.98600006 4290427326
0.024384361 0.18738458 0.98600006 4289638064
0.026166348 0.18681443 0.98300004 4289177511
0.028022526 0.18681443 0.98300004 4290888129
0.029909099 0.18700448 0.98400003 4286414205
0.031767167 0.18700448 0.98400003 4287072135
0.033625234 0.18700448 0.98400003 4289572271
0.035519358 0.18719453 0.98500007 4284177245
0.037379313 0.18719453 0.98500007 4288914341
0.039279107 0.18738458 0.98600006 4286348414
0.041099224 0.18719453 0.98500007 4283059021
0.042871952 0.18681443 0.98300004 4282795849
0.044637129 0.18643434 0.98100007 4291217353
0.046442136 0.18624431 0.98000002 4290098872
0.048391208 0.18662439 0.98200005 4283322447
0.050296664 0.18681443 0.98300004 4289770161
0.052258953 0.18719453 0.98500007 4289178024
0.054228794 0.18757461 0.98700005 4284177757
0.056092523 0.18757461 0.98700005 4282861897
0.057780098 0.18700448 0.98400003 4284506466
0.059456341 0.18643434 0.98100007 4285756789
0.061246246 0.18624431 0.98000002 4288125081
0.063096762 0.18624431 0.98000002 4285493616
0.065079816 0.18662439 0.98200005 4285164394
0.067002267 0.18681443 0.98300004 4286874756
0.068928495 0.18700448 0.98400003 4288914339
0.070858501 0.18719453 0.98500007 4290032821
0.072718456 0.18719453 0.98500007 4289967028
0.074654125 0.18738458 0.98600006 4288585375
0.07659357 0.18757461 0.98700005 4283190348
0.078298323 0.18719453 0.98500007 4287598479
0.07999552 0.18681443 0.98300004 4288519581
0.081768431 0.18662439 0.98200005 4288914338
0.083622716 0.18662439 0.98200005 4290624955
0.085564055 0.18681443 0.98300004 4286479996
0.087509163 0.18700448 0.98400003 4283914070
0.089367233 0.18700448 0.98400003 4282335552
0.091318004 0.18719453 0.98500007 4286612097
0.093177959 0.18719453 0.98500007 4284177756
0.09494143 0.18700448 0.98400003 4281546036
0.096504375 0.18643434 0.98100007 4284506721
0.098356776 0.18643434 0.98100007 4291809744
0.10010703 0.18624431 0.98000002 4290888642
0.10206158 0.18643434 0.98100007 4289046438
0.10391398 0.18643434 0.98100007 4286414716
0.10598201 0.18681443 0.98300004 4285493871
0.10794789 0.18700448 0.98400003 4285296751
0.10980596 0.18700448 0.98400003 4286152315
0.11166403 0.18700448 0.98400003 4288257690
0.11363746 0.18719453 0.98500007 4288717471
0.11514565 0.18662439 0.98200005 4289638573
0.11688079 0.18643434 0.98100007 4290230708
0.11873319 0.18643434 0.98100007 4289375399
0.12070852 0.18662439 0.98200005 4284440924
0.12306204 0.18738458 0.98600006 4285033061
0.12517729 0.18776466 0.98800004 4289243813
0.12794299 0.18909498 0.99500006 4284769890
0.13008279 0.18947506 0.99700004 4283388238
0.13170068 0.18909498 0.99500006 4284769891
0.13290825 0.18814476 0.99000007 4289572526
0.13409697 0.18719453 0.98500007 4290888129
0.13568087 0.18681443 0.98300004 4290164406
0.13725722 0.18643434 0.98100007 4282795590
0.13939323 0.18681443 0.98300004 4283058762
0.1412494 0.18681443 0.98300004 4286545791
0.14325117 0.18700448 0.98400003 4287664785
0.14540417 0.18738458 0.98600006 4284573284
0.14726602 0.18738458 0.98600006 4284573539
0.14927909 0.18757461 0.98700005 4284836711
0.15160222 0.18814476 0.99000007 4287797396
0.15362665 0.18833479 0.99100006 4284639075
0.15581176 0.18871488 0.99300003 4283454799
0.15752801 0.18852484 0.99200004 4288652446
0.15940118 0.18852484 0.99200004 4290691261
0.1609492 0.18814476 0.99000007 4289572780
0.1628186 0.18814476 0.99000007 4288454297
0.16518706 0.18871488 0.99300003 4282664513
0.16723035 0.18890494 0.99400002 4282006583
0.16876705 0.18852484 0.99200004 4286019956
0.17012417 0.18795469 0.98900002 4288256918
0.17181778 0.18776466 0.98800004 4290493623
0.1735076 0.18757461 0.98700005 4285690734
0.17519365 0.18738458 0.98600006 4287532425
0.17705551 0.18738458 0.98600006 4290624698
0.17855443 0.18700448 0.98400003 4290887870
0.17986245 0.18643434 0.98100007 4289374631
0.18190008 0.18662439 0.98200005 4284506206
0.18375438 0.18662439 0.98200005 4282532416
0.1859867 0.18700448 0.98400003 4284966757
0.18822657 0.18738458 0.98600006 4286874754
0.19008841 0.18738458 0.98600006 4287335818
0.19214492 0.18757461 0.98700005 4285625200
0.19400865 0.18757461 0.98700005 4285362028
0.19567393 0.18738458 0.98600006 4285427308
0.19753577 0.18738458 0.98600006 4289046436
0.19899316 0.18700448 0.98400003 4289901743
-0.19802749 0.18828292 0.98100007 4290559416
-0.19577515 0.18789905 0.97900003 4288519833
-0.19392653 0.18789905 0.97900003 4289046177
-0.19207789 0.18789905 0.97900003 4289177762
-0.19042359 0.18809099 0.98000002 4286875007
-0.18876548 0.18828292 0.98100007 4291151553
-0.18729416 0.18866678 0.98300004 4289046177
-0.18543798 0.18866678 0.98300004 4284967011
-0.18395531 0.18905064 0.98500007 4290098864
-0.18209536 0.18905064 0.98500007 4286677629
-0.18005241 0.1888587 0.98400003 4281743153
-0.17801325 0.18866678 0.98300004 4285427817
-0.17579867 0.18828292 0.98100007 4291086015
-0.17394628 0.18828292 0.98100007 4286086004
-0.17209387 0.18828292 0.98100007 4285691246
-0.17041501 0.18847485 0.98200005 4289244068
-0.16873236 0.18866678 0.98300004 4286414970
-0.16721572 0.18905064 0.98500007 4284046423
-0.16535577 0.18905064 0.98500007 4282730563
-0.16316383 0.18866678 0.98300004 4284704098
-0.16081537 0.18809099 0.98000002 4287269512
-0.15864044 0.18770713 0.97800004 4286808960
-0.15679371 0.18770713 0.97800004 4285427050
-0.1551054 0.18789905 0.97900003 4285427050
-0.15325677 0.18789905 0.97900003 4287006081
-0.15140814 0.18789905 0.97900003 4289637800
-0.14940676 0.18770713 0.97800004 4290427316
-0.14756002 0.18770713 0.97800004 4289440421
-0.14586227 0.18789905 0.97900003 4286019185
-0.14416075 0.18809099 0.98000002 4285032290
-0.14245544 0.18828292 0.98100007 4288650905
-0.14060304 0.18828292 0.98100007 4288585113
-0.13860922 0.18809099 0.98000002 4289177250
-0.1367587 0.18809099 0.98000002 4290558903
-0.13490818 0.18809099 0.98000002 4286940802
-0.13292189 0.18789905 0.97900003 4283585358
-0.13120715 0.18809099 0.98000002 4285295976
-0.12948863 0.18828292 0.98100007 4288256661
-0.12789644 0.18866678 0.98300004 4285559405
-0.12629671 0.18905064 0.98500007 4282269755
-0.12380511 0.18809099 0.98000002 4282467134
-0.12183014 0.18789905 0.97900003 4289441192
-0.11998151 0.18789905 0.97900003 4289441192
-0.11825356 0.18809099 0.98000002 4288388247
-0.11664061 0.18847485 0.98200005 4285295976
-0.11502009 0.1888587 0.98400003 4284703839
-0.11304703 0.18866678 0.98300004 4284769632
-0.11119085 0.18866678 0.98300004 4286479736
-0.10911222 0.18828292 0.98100007 4288058768
-0.10715047 0.18809099 0.98000002 4288058768
-0.10529996 0.18809099 0.98000002 4288848541
-0.10334389 0.18789905 0.97900003 4290361783
-0.10159893 0.18809099 0.98000002 4288454300
-0.099748418 0.18809099 0.98000002 4285296755
-0.088807397 0.17062539 0.88900006 4286744458
-0.087128714 0.17062539 0.88900006 4287468182
-0.084008247 0.16774645 0.87400001 4287666331
-0.081980959 0.16697873 0.87000006 4287468952
-0.080245815 0.1667868 0.86900002 4287535258
-0.078333534 0.16621101 0.86600006 4287469465
-0.076166891 0.16505943 0.86000001 4287864223
-0.074282937 0.16448365 0.85700005 4287798430
-0.072495103 0.1640998 0.85500002 4287732894
-0.070549019 0.16333207 0.85100001 4287601308
-0.068618037 0.16256435 0.84700006 4287667871
-0.066860422 0.1621805 0.84500003 4287931043
-0.064955875 0.16141278 0.84100002 4287667358
-0.063217141 0.16102891 0.83900005 4287930273
-0.061559413 0.16083698 0.83800006 4287995809
-0.059833895 0.16045313 0.83600003 4287930016
-0.058185607 0.16026118 0.83500004 4287732124
-0.056473304 0.15987733 0.83300006 4287929246
-0.054702647 0.15930155 0.83000004 4288126112
-0.052815281 0.1583419 0.82500005 4287731354
-0.051071063 0.15776612 0.82200003 4288718249
-0.049458656 0.15757418 0.82100004 4293586418
-0.047733318 0.1569984 0.81800002 4294704895
-0.04613224 0.15680647 0.81700003 4294835967
-0.044589516 0.15680647 0.81700003 4294835967
-0.042994104 0.15661453 0.81600004 4294835967
-0.041402467 0.1564226 0.81500006 4294901758
-0.039863519 0.1564226 0.81500006 4294901502
-0.038277548 0.15623067 0.81400001 4294901502
-0.036785621 0.1564226 0.81500006 4294901502
-0.035246674 0.1564226 0.81500006 4294901502
-0.033749089 0.15661453 0.81600004 4294901502
-0.032247722 0.15680647 0.81700003 4294901502
-0.030742582 0.1569984 0.81800002 4294901502
-0.02919797 0.1569984 0.81800002 4294901502
-0.027653357 0.1569984 0.81800002 4294901502
-0.026108745 0.1569984 0.81800002 4294901502
-0.024504075 0.15661453 0.81600004 4294901502
-0.022963239 0.15661453 0.81600004 4294901502
-0.021422405 0.15661453 0.81600004 4294901502
-0.019905932 0.15680647 0.81700003 4294901502
-0.018385684 0.1569984 0.81800002 4294901502
-0.01686166 0.15719032 0.81900007 4294901502
-0.015333859 0.15738225 0.82000005 4294901502
-0.013802283 0.15757418 0.82100004 4294836222
-0.012252006 0.15757418 0.82100004 4294836222
-0.010701728 0.15757418 0.82100004 4294835967
-0.0091625974 0.15776612 0.82200003 4294770175
-0.0076474659 0.15853383 0.82600003 4294770175
-0.0062130401 0.16179663 0.84300005 4290559682
-0.0046431487 0.16256435 0.84700006 4284178018
-0.0030437761 0.16256435 0.84700006 4284770156
0.011247844 0.1875152 0.97700006 4285098605
0.013092693 0.1875152 0.97700006 4285756536
0.01496812 0.18789905 0.97900003 4290756804
0.016851101 0.18828292 0.98100007 4287993498
0.018875096 0.19001028 0.99000007 4283914332
0.020681629 0.18943448 0.98700005 4282137921
0.022499675 0.18905064 0.98500007 4289177259
0.024334898 0.1888587 0.98400003 4289703857
0.026139729 0.18847485 0.98200005 4289703855
0.027965512 0.18828292 0.98100007 4291414473
0.029848309 0.18847485 0.98200005 4287664273
0.031702597 0.18847485 0.98200005 4286282621
0.033556886 0.18847485 0.98200005 4290361787
0.03544724 0.18866678 0.98300004 4284506210
0.037341367 0.1888587 0.98400003 4288848548
0.039239269 0.18905064 0.98500007 4289177513
0.041099224 0.18905064 0.98500007 4283124557
0.042828336 0.18847485 0.98200005 4282400834
0.044637129 0.18828292 0.98100007 4289835699
0.046442136 0.18809099 0.98000002 4289638320
0.04834193 0.18828292 0.98100007 4283256654
0.050245497 0.18847485 0.98200005 4289967540
0.052205898 0.1888587 0.98400003 4290033333
0.05417385 0.18924257 0.98600006 4283519826
0.055978861 0.18905064 0.98500007 4282598724
0.057721376 0.18866678 0.98300004 4284835686
0.05939573 0.18809099 0.98000002 4285822581
0.061121255 0.18770713 0.97800004 4287993750
0.063032374 0.18789905 0.97900003 4286217339
0.065013543 0.18828292 0.98100007 4285033065
0.066934109 0.18847485 0.98200005 4285887861
0.068858445 0.18866678 0.98300004 4288322202
0.070714623 0.18866678 0.98300004 4289769648
0.072570801 0.18866678 0.98300004 4290164406
0.074502699 0.1888587 0.98400003 4288256409
0.076438367 0.18905064 0.98500007 4282795590
0.078139342 0.18866678 0.98300004 4286874756
0.079832755 0.18828292 0.98100007 4288651167
0.081601895 0.18809099 0.98000002 4288651167
0.083452411 0.18809099 0.98000002 4290427578
0.085477009 0.18847485 0.98200005 4288914339
0.087420233 0.18866678 0.98300004 4283914584
0.089367233 0.1888587 0.98400003 4282335552
0.091225296 0.1888587 0.98400003 4286875269
0.093177959 0.18905064 0.98500007 4286546304
0.094844945 0.18866678 0.98300004 4281940794
0.096406005 0.18809099 0.98000002 4282269759
0.098256521 0.18809099 0.98000002 4289704368
0.10000488 0.18789905 0.97900003 4291020228
0.10195754 0.18809099 0.98000002 4289112231
0.10380806 0.18809099 0.98000002 4286546302
0.1058742 0.18847485 0.98200005 4285822835
0.10794789 0.1888587 0.98400003 4285428591
0.10969437 0.18866678 0.98300004 4285625970
0.11166403 0.1888587 0.98400003 4287862932
0.11340673 0.18866678 0.98300004 4289178534
0.11502839 0.18828292 0.98100007 4289770157
0.11676165 0.18809099 0.98000002 4290493880
0.11861216 0.18809099 0.98000002 4290822845
0.1205856 0.18828292 0.98100007 4287401609
0.12281243 0.1888587 0.98400003 4282467136
0.12505059 0.18943448 0.98700005 4288454299
0.12691432 0.18943448 0.98700005 4286217337
0.13008279 0.19135378 0.99700004 4281809206
0.13170068 0.19096993 0.99500006 4283585362
0.13290825 0.19001028 0.99000007 4287598479
0.13396083 0.1888587 0.98400003 4291217094
0.13554284 0.18847485 0.98200005 4290295735
0.13725722 0.18828292 0.98100007 4282532418
0.13925141 0.18847485 0.98200005 4282992969
0.14110571 0.18847485 0.98200005 4285558896
0.14310558 0.18866678 0.98300004 4288191129
0.14496176 0.18866678 0.98300004 4286086010
0.14696729 0.1888587 0.98400003 4284968042
0.14897659 0.18905064 0.98500007 4284704868
0.15129597 0.18962641 0.98800004 4287665553
0.15347162 0.19001028 0.99000007 4286481025
0.15565483 0.19039413 0.99200004 4283191629
0.15752801 0.19039413 0.99200004 4287862419
0.15891913 0.18981834 0.98900002 4290164919
0.16062407 0.18962641 0.98800004 4289967539
0.16265415 0.18981834 0.98900002 4289112227
0.16452165 0.18981834 0.98900002 4284440924
0.16706212 0.19058606 0.99300003 4280953897
0.16859692 0.19020221 0.99100006 4283717201
0.16995217 0.18962641 0.98800004 4287664781
0.17164387 0.18943448 0.98700005 4290033329
0.17333181 0.18924257 0.98600006 4287796110
0.17501597 0.18905064 0.98500007 4284967011
0.17687592 0.18905064 0.98500007 4289703853
0.17837298 0.18866678 0.98300004 4290624955
0.17949577 0.18789905 0.97900003 4290624955
0.18152961 0.18809099 0.98000002 4286479996
0.18375438 0.18847485 0.98200005 4282992967
0.18579769 0.18866678 0.98300004 4283848276
0.18784475 0.1888587 0.98400003 4284703585
0.18970282 0.1888587 0.98400003 4287401611
0.19117154 0.18847485 0.98200005 4286349436
0.19282927 0.18828292 0.98100007 4285165162
0.19468167 0.18828292 0.98100007 4284507489
0.19673441 0.18847485 0.98200005 4287335818
0.19818424 0.18809099 0.98000002 4289375399
0.19962652 0.18770713 0.97800004 4291283396
-0.19886114 0.18916242 0.97600007 4289506727
-0.19661446 0.18877478 0.97400004 4290230451
-0.19457531 0.18858097 0.97300005 4288980384
-0.19293609 0.18877478 0.97400004 4290691002
-0.1910969 0.18877478 0.97400004 4288519833
-0.18945204 0.1889686 0.97500002 4286743422
-0.18780337 0.18916242 0.97600007 4290888381
-0.18596041 0.18916242 0.97600007 4288125075
-0.18430611 0.18935624 0.97700006 4288519834
-0.18283477 0.18974385 0.97900003 4291282884
-0.18135588 0.19013149 0.98100007 4286085237
-0.1793205 0.18993768 0.98000002 4282072119
-0.17728889 0.18974385 0.97900003 4288190868
-0.17508186 0.18935624 0.97700006 4291151553
-0.1730597 0.18916242 0.97600007 4284769888
-0.17139217 0.18935624 0.97700006 4287796366
-0.16954732 0.18935624 0.97700006 4290099377
-0.16787413 0.18955004 0.97800004 4286546812
-0.16619715 0.18974385 0.97900003 4282796612
-0.1645164 0.18993768 0.98000002 4282994248
-0.16216792 0.18935624 0.97700006 4285888370
-0.15983078 0.18877478 0.97400004 4287861903
-0.1579916 0.18877478 0.97400004 4286546043
-0.15615241 0.18877478 0.97400004 4285032804
-0.15447167 0.1889686 0.97500002 4285098340
-0.1526306 0.1889686 0.97500002 4286808701
-0.15078953 0.1889686 0.97500002 4289308835
-0.14879568 0.18877478 0.97400004 4289966765
-0.14695649 0.18877478 0.97400004 4288585112
-0.14526631 0.1889686 0.97500002 4284505946
-0.14371943 0.18935624 0.97700006 4285229669
-0.14201981 0.18955004 0.97800004 4288256147
-0.14002974 0.18935624 0.97700006 4288453527
-0.13804345 0.18916242 0.97600007 4289703595
-0.13620049 0.18916242 0.97600007 4291545800
-0.13421987 0.1889686 0.97500002 4286940547
-0.13224302 0.18877478 0.97400004 4283650897
-0.13053773 0.1889686 0.97500002 4285361515
-0.12896065 0.18935624 0.97700006 4287993235
-0.12737602 0.18974385 0.97900003 4283914581
-0.12527095 0.18935624 0.97700006 4282006583
-0.12304711 0.18877478 0.97400004 4284638303
-0.12120792 0.18877478 0.97400004 4291151810
-0.11924618 0.18858097 0.97300005 4289967536
-0.11765022 0.1889686 0.97500002 4287993490
-0.11592793 0.18916242 0.97600007 4285032549
-0.11420186 0.18935624 0.97700006 4285098597
-0.11224201 0.18916242 0.97600007 4285164390
-0.11039905 0.18916242 0.97600007 4287072130
-0.10855609 0.18916242 0.97600007 4288387734
-0.10682247 0.18935624 0.97700006 4288190611
-0.10497762 0.18935624 0.97700006 4289572521
-0.10323833 0.18955004 0.97800004 4289441195
-0.10139159 0.18955004 0.97800004 4288849317
-0.098527014 0.18761191 0.96800005 4285230962
-0.097598225 0.18935624 0.97700006 4286744715
-0.084008247 0.16939339 0.87400001 4287863966
-0.081980959 0.16861814 0.87000006 4287666844
-0.080245815 0.16842432 0.86900002 4287798430
-0.078333534 0.16784288 0.86600006 4287666844
-0.076255456 0.16687381 0.86100006 4287864223
-0.074282937 0.16609855 0.85700005 4287864223
-0.07257989 0.16590475 0.85600007 4287930016
-0.070549019 0.16493568 0.85100001 4287667101
-0.068618037 0.16416042 0.84700006 4287798687
-0.06693954 0.16396661 0.84600002 4287799200
-0.064955875 0.16299754 0.84100002 4287864480
-0.063367836 0.16299754 0.84100002 4287996066
-0.061632875 0.16260991 0.83900005 4287996066
-0.059905466 0.16222228 0.83700001 4287995809
-0.058255292 0.16202846 0.83600003 4287798430
-0.0565411 0.16164084 0.83400005 4287600538
-0.054768555 0.16105939 0.83100003 4287732124
-0.052879304 0.16009031 0.82600003 4288060575
-0.051071063 0.15931508 0.82200003 4287731611
-0.049398411 0.15892744 0.82000005 4288718249
-0.047733318 0.15853982 0.81800002 4292731365
-0.046075776 0.15815218 0.81600004 4294639103
-0.04453494 0.15815218 0.81600004 4294705151
-0.042941414 0.15795837 0.81500006 4294770431
-0.041402467 0.15795837 0.81500006 4294835967
-0.039863519 0.15795837 0.81500006 4294836222
-0.038277548 0.15776455 0.81400001 4294901502
-0.036740489 0.15776455 0.81400001 4294901502
-0.035246674 0.15795837 0.81500006 4294901502
-0.033749089 0.15815218 0.81600004 4294901502
-0.032208253 0.15815218 0.81600004 4294901502
-0.030704999 0.158346 0.81700003 4294901502
-0.02919797 0.15853982 0.81800002 4294901502
-0.027619552 0.158346 0.81700003 4294901502
-0.026076827 0.158346 0.81700003 4294901502
-0.024504075 0.15815218 0.81600004 4294901502
-0.022935098 0.15795837 0.81500006 4294901502
-0.021396151 0.15795837 0.81500006 4294901502
-0.019881569 0.15815218 0.81600004 4294901502
-0.018363208 0.158346 0.81700003 4294901502
-0.016841073 0.15853982 0.81800002 4294901502
-0.01531516 0.15873362 0.81900007 4294836222
-0.01376866 0.15873362 0.81900007 4294836222
-0.012222159 0.15873362 0.81900007 4294835967
-0.010675658 0.15873362 0.81900007 4294835967
-0.0091291582 0.15873362 0.81900007 4294770431
-0.0076196911 0.15950888 0.82300001 4294638845
0.011247844 0.18935624 0.97700006 4284901482
0.013092693 0.18935624 0.97700006 4286151294
0.01496812 0.18974385 0.97900003 4290427839
0.016851101 0.19013149 0.98100007 4287138189
0.01872257 0.1903253 0.98200005 4284374883
0.020534949 0.18993768 0.98000002 4282730058
0.022362622 0.18974385 0.97900003 4290295740
0.024211247 0.18974385 0.97900003 4290032822
0.026006635 0.18935624 0.97700006 4289506476
0.027822977 0.18916242 0.97600007 4290888129
0.029635539 0.1889686 0.97500002 4287664274
0.031508896 0.18916242 0.97600007 4286348414
0.033386026 0.18935624 0.97700006 4289440685
0.035266936 0.18955004 0.97800004 4283519315
0.037189569 0.18993768 0.98000002 4288321950
0.039119758 0.1903253 0.98200005 4290493374
0.040974047 0.1903253 0.98200005 4283256143
0.042741112 0.18993768 0.98000002 4282269248
0.044591624 0.18993768 0.98000002 4288256922
0.046347357 0.18955004 0.97800004 4290230712
0.048243374 0.18974385 0.97900003 4283125068
0.050092001 0.18974385 0.97900003 4288914852
0.051993679 0.18993768 0.98000002 4290757056
0.053899135 0.19013149 0.98100007 4283783255
0.055694707 0.18993768 0.98000002 4282532931
0.057486501 0.18974385 0.97900003 4283651412
0.059213907 0.18935624 0.97700006 4285625202
0.060933765 0.1889686 0.97500002 4287401613
0.062839217 0.18916242 0.97600007 4285888374
0.064682178 0.18916242 0.97600007 4285033065
0.066661462 0.18955004 0.97800004 4285625202
0.068578251 0.18974385 0.97900003 4288256409
0.070426874 0.18974385 0.97900003 4289638062
0.072275504 0.18974385 0.97900003 4290098613
0.074124128 0.18974385 0.97900003 4288190615
0.075972751 0.18974385 0.97900003 4282795589
0.077741884 0.18955004 0.97800004 4286019447
0.079507239 0.18935624 0.97700006 4289440683
0.081268825 0.18916242 0.97600007 4288848546
0.083111785 0.18916242 0.97600007 4290361785
0.085128836 0.18955004 0.97800004 4289506733
0.087064505 0.18974385 0.97900003 4284638307
0.089185588 0.1903253 0.98200005 4282664517
0.091132589 0.19051911 0.98300004 4286809476
0.092988767 0.19051911 0.98300004 4287665299
0.094651967 0.19013149 0.98100007 4282598981
0.096307628 0.18974385 0.97900003 4281283121
0.098055989 0.18955004 0.97800004 4286546304
0.099800579 0.18935624 0.97700006 4290691263
0.10174946 0.18955004 0.97800004 4289309610
0.1035962 0.18955004 0.97800004 4286480511
0.10555076 0.18974385 0.97900003 4285033065
0.10761878 0.19013149 0.98100007 4284836454
0.10958277 0.1903253 0.98200005 4284968040
0.11132359 0.19013149 0.98100007 4285889142
0.11306062 0.18993768 0.98000002 4288454553
0.11455937 0.18935624 0.97700006 4289375399
0.11628507 0.18916242 0.97600007 4289770157
0.118007 0.1889686 0.97500002 4290428087
0.11997099 0.18916242 0.97600007 4287796367
0.12206357 0.18955004 0.97800004 4282335037
0.1241637 0.18993768 0.98000002 4287137926
0.12562846 0.18935624 0.97700006 4288059030
0.12916946 0.19187582 0.99000007 4282992969
0.13090651 0.191682 0.98900002 4283979864
0.13237126 0.19110055 0.98600006 4286479998
0.13355242 0.19013149 0.98100007 4290624957
0.13526678 0.18993768 0.98000002 4291480266
0.13683745 0.18955004 0.97800004 4285887861
0.1386842 0.18955004 0.97800004 4282269246
0.14038725 0.18935624 0.97700006 4284637794
0.14208652 0.18916242 0.97600007 4287730067
0.14392948 0.18916242 0.97600007 4287270027
0.14607115 0.18955004 0.97800004 4285362287
0.14837162 0.19013149 0.98100007 4285230957
0.15053029 0.19051911 0.98300004 4286810244
0.15285154 0.19110055 0.98600006 4288520608
0.15487029 0.19129437 0.98700005 4283981145
0.15657523 0.19110055 0.98600006 4286151544
0.1581157 0.19071291 0.98400003 4289638575
0.15964861 0.1903253 0.98200005 4290888642
0.1615029 0.1903253 0.98200005 4289506474
0.1636899 0.19071291 0.98400003 4286480507
0.16605267 0.19129437 0.98700005 4282138171
0.1679164 0.19129437 0.98700005 4282467134
0.1694361 0.19090675 0.98500007 4286677886
0.17112216 0.19071291 0.98400003 4290099122
0.17262864 0.1903253 0.98200005 4290559673
0.17430525 0.19013149 0.98100007 4285690734
0.17615765 0.19013149 0.98100007 4286611582
0.17728423 0.18935624 0.97700006 4290822334
0.17894572 0.18916242 0.97600007 4291085508
0.18078868 0.18916242 0.97600007 4287269514
0.18263164 0.18916242 0.97600007 4283453520
0.18466361 0.18935624 0.97700006 4282532417
0.18689026 0.18974385 0.97900003 4284506208
0.18893167 0.18993768 0.98000002 4286941061
0.19078219 0.18993768 0.98000002 4286810244
0.19243614 0.18974385 0.97900003 4285033833
0.19428477 0.18974385 0.97900003 4284770661
0.19613339 0.18974385 0.97900003 4286217337
0.19757755 0.18935624 0.97700006 4289309607
0.19901417 0.1889686 0.97500002 4291086017
-0.19947027 0.18982737 0.97000003 4282861634
-0.19763865 0.18982737 0.97000003 4288322453
-0.19560514 0.18963167 0.96900004 4289111970
-0.19357544 0.18943597 0.96800005 4289506728
-0.19194566 0.18963167 0.96900004 4290954174
-0.19050831 0.19002308 0.97100008 4286480250
