# .PCD v0.7 - Point Cloud Data file format
VERSION 0.7
FIELDS x y z rgba
SIZE 4 4 4 4
TYPE F F F U
COUNT 1 1 1 1
WIDTH 1067
HEIGHT 1
VIEWPOINT 0 0 0 1 0 0 0
POINTS 1067
DATA ascii
0.18188775 0.25080448 0.77000004 4287204230
0.18334171 0.25080448 0.77000004 4291546311
0.18527569 0.25145593 0.77200001 4288980384
0.18721719 0.25210735 0.77400005 4287072387
0.18892249 0.25243309 0.77500004 4285822320
0.18989459 0.25178167 0.77300006 4285427562
0.19135423 0.25178167 0.77300006 4284835425
0.19281387 0.25178167 0.77300006 4284638303
0.1942735 0.25178167 0.77300006 4284506717
0.19573314 0.25178167 0.77300006 4288717724
0.19719279 0.25178167 0.77300006 4288849310
0.19839545 0.25145593 0.77200001 4289638826
0.1995943 0.25113019 0.77100003 4290822843
-0.19972645 0.25127265 0.76700002 4281611827
-0.19801964 0.25094503 0.76600003 4283454801
-0.19605997 0.25028983 0.76400006 4286547072
-0.19461732 0.25028983 0.76400006 4290034101
-0.19317468 0.25028983 0.76400006 4286152314
-0.19173203 0.25028983 0.76400006 4284310367
-0.19078752 0.25094503 0.76600003 4283652437
-0.18983546 0.25160024 0.76800001 4283191886
-0.18764938 0.25061744 0.76500005 4283849816
-0.18717848 0.25192785 0.76900005 4283915609
-0.18548487 0.25160024 0.76800001 4287336332
-0.18403468 0.25160024 0.76800001 4283454031
-0.18234673 0.25127265 0.76700002 4281809204
-0.18113427 0.25160024 0.76800001 4282335550
-0.17991805 0.25192785 0.76900005 4283454031
-0.17846596 0.25192785 0.76900005 4281085483
-0.17586294 0.25028983 0.76400006 4282532929
-0.17419198 0.24996221 0.76300001 4290888640
-0.17275123 0.24996221 0.76300001 4288454556
-0.171535 0.25028983 0.76400006 4286415232
-0.17053762 0.25094503 0.76600003 4284638821
-0.16931194 0.25127265 0.76700002 4284178272
-0.16633162 0.24897942 0.76000005 4284441444
-0.16598138 0.25061744 0.76500005 4283915100
-0.16432178 0.25028983 0.76400006 4287402129
-0.16287912 0.25028983 0.76400006 4286744199
-0.16143648 0.25028983 0.76400006 4284178271
-0.16020325 0.25061744 0.76500005 4282730310
-0.15875871 0.25061744 0.76500005 4282204222
-0.15731418 0.25061744 0.76500005 4282270527
-0.15546215 0.24996221 0.76300001 4283652178
-0.15361767 0.24930701 0.76100004 4289244584
-0.15218069 0.24930701 0.76100004 4289376171
-0.15074371 0.24930701 0.76100004 4290165173
-0.14911053 0.24897942 0.76000005 4285559405
-0.14767542 0.24897942 0.76000005 4285954420
-0.14643276 0.24930701 0.76100004 4290493883
-0.14518631 0.24963462 0.76200002 4287598992
-0.14412475 0.25028983 0.76400006 4287862164
-0.1430556 0.25094503 0.76600003 4284572514
-0.14197892 0.25160024 0.76800001 4282006587
-0.14052872 0.25160024 0.76800001 4281480243
-0.13889742 0.25127265 0.76700002 4281809207
-0.13709071 0.25061744 0.76500005 4286941060
-0.13511422 0.24963462 0.76200002 4288914850
-0.13367535 0.24963462 0.76200002 4289112485
-0.13241003 0.24996221 0.76300001 4287665551
-0.13131258 0.25061744 0.76500005 4287139207
-0.13020757 0.25127265 0.76700002 4282599491
-0.12926288 0.25225547 0.77000004 4284178524
-0.1278089 0.25225547 0.77000004 4288126105
-0.12619084 0.25192785 0.76900005 4284836200
-0.12425213 0.25094503 0.76600003 4284178270
-0.1228057 0.25094503 0.76600003 4283651926
-0.12120084 0.25061744 0.76500005 4283849305
-0.11991286 0.25094503 0.76600003 4285823095
-0.11846644 0.25094503 0.76600003 4286612611
-0.11717278 0.25127265 0.76700002 4284902248
-0.11587535 0.25160024 0.76800001 4283454801
-0.11442515 0.25160024 0.76800001 4281349424
-0.11282785 0.25127265 0.76700002 4286744450
-0.11108911 0.25061744 0.76500005 4289310378
-0.10950125 0.25028983 0.76400006 4289705136
-0.10791717 0.24996221 0.76300001 4286941830
-0.10647641 0.24996221 0.76300001 4284178267
-0.10489799 0.24963462 0.76200002 4281678133
-0.10332336 0.24930701 0.76100004 4281875255
-0.10188638 0.24930701 0.76100004 4282927687
-0.10044939 0.24930701 0.76100004 4286414716
-0.099142522 0.24963462 0.76200002 4282796101
-0.097831868 0.24996221 0.76300001 4284506717
-0.096391112 0.24996221 0.76300001 4288520090
-0.094825916 0.24963462 0.76200002 4287665038
-0.093387045 0.24963462 0.76200002 4289638827
-0.091827512 0.24930701 0.76100004 4288256917
-0.090390533 0.24930701 0.76100004 4287467401
-0.088953547 0.24930701 0.76100004 4286481020
-0.087746568 0.24996221 0.76300001 4285889140
-0.086532041 0.25061744 0.76500005 4283257420
-0.085198738 0.25094503 0.76600003 4283454285
-0.083970986 0.25160024 0.76800001 4284046166
-0.082413338 0.25127265 0.76700002 4283124807
-0.080859475 0.25094503 0.76600003 4283651150
-0.079309374 0.25061744 0.76500005 4285164389
-0.077661276 0.24996221 0.76300001 4286348663
-0.076220512 0.24996221 0.76300001 4288848797
-0.074779756 0.24996221 0.76300001 4287532937
-0.07343512 0.25028983 0.76400006 4282730048
-0.072086707 0.25061744 0.76500005 4281808947
-0.070549831 0.25028983 0.76400006 4281874740
-0.068835825 0.24930701 0.76100004 4285098597
-0.067398846 0.24930701 0.76100004 4287335558
-0.06604854 0.24963462 0.76200002 4283716943
-0.064779252 0.25028983 0.76400006 4281808946
-0.063253701 0.24996221 0.76300001 4283059270
-0.061731935 0.24963462 0.76200002 4286349176
-0.060213938 0.24930701 0.76100004 4289244068
-0.05877696 0.24930701 0.76100004 4286678141
-0.057339977 0.24930701 0.76100004 4285625453
-0.056049921 0.24996221 0.76300001 4286020211
-0.054680731 0.25028983 0.76400006 4285164902
-0.053307772 0.25061744 0.76500005 4281151529
-0.051863238 0.25061744 0.76500005 4284572509
-0.050352797 0.25028983 0.76400006 4285690991
-0.048846133 0.24996221 0.76300001 4286743679
-0.04734325 0.24963462 0.76200002 4286019956
-0.045904379 0.24963462 0.76200002 4284243545
-0.044523865 0.24996221 0.76300001 4282730306
-0.043139569 0.25028983 0.76400006 4282664768
-0.041696925 0.25028983 0.76400006 4282072631
-0.04030697 0.25061744 0.76500005 4282532669
-0.038760837 0.24996221 0.76300001 4285690733
-0.037271168 0.24963462 0.76200002 4284769632
-0.035785273 0.24930701 0.76100004 4283453772
-0.034438565 0.24996221 0.76300001 4282006583
-0.033084303 0.25061744 0.76500005 4281019688
-0.031763848 0.25160024 0.76800001 4282204217
-0.03031365 0.25160024 0.76800001 4282730561
-0.028825868 0.25127265 0.76700002 4288388759
-0.027341863 0.25094503 0.76600003 4286612348
-0.025895441 0.25094503 0.76600003 4280953893
-0.024417104 0.25061744 0.76500005 4283519564
-0.022972571 0.25061744 0.76500005 4288717212
-0.021499895 0.25028983 0.76400006 4283979860
-0.020083504 0.25061744 0.76500005 4280361501
-0.018687699 0.25127265 0.76700002 4280888102
-0.017216912 0.25094503 0.76600003 4281940279
-0.015626375 0.2486518 0.75900006 4288519579
-0.014305369 0.25061744 0.76500005 4283585102
-0.012844024 0.25028983 0.76400006 4281479982
-0.011401379 0.25028983 0.76400006 4286940801
-0.0099456981 0.24996221 0.76300001 4287401352
-0.0085049411 0.24996221 0.76300001 4283914322
-0.0070641846 0.24996221 0.76300001 4286611835
-0.0056307982 0.25028983 0.76400006 4289309348
-0.004188153 0.25028983 0.76400006 4286809214
-0.0027491013 0.25061744 0.76500005 4286611836
-0.0013062732 0.25094503 0.76600003 4290427830
0.00014033155 0.25127265 0.76700002 4285953652
0.0015907128 0.25160024 0.76800001 4280953384
0.0030448707 0.25192785 0.76900005 4282664256
0.0044969572 0.25192785 0.76900005 4284506460
0.0059490437 0.25192785 0.76900005 4285690993
0.0074011306 0.25192785 0.76900005 4284704096
0.0088532167 0.25192785 0.76900005 4282466877
0.010291902 0.25160024 0.76800001 4282730049
0.011711522 0.25094503 0.76600003 4284111701
0.013123589 0.25028983 0.76400006 4289046176
0.014547169 0.24996221 0.76300001 4289901485
0.015966972 0.24963462 0.76200002 4290493622
0.017428683 0.24996221 0.76300001 4286940800
0.018894169 0.25028983 0.76400006 4281677360
0.020363433 0.25061744 0.76500005 4283124806
0.021807967 0.25061744 0.76500005 4284638046
0.0232525 0.25061744 0.76500005 4287796110
0.02466475 0.25028983 0.76400006 4286546300
0.026107395 0.25028983 0.76400006 4284770144
0.027550042 0.25028983 0.76400006 4283980628
0.029068584 0.25094503 0.76600003 4283783249
0.030554842 0.25127265 0.76700002 4286480762
0.032003149 0.25127265 0.76700002 4286809214
0.03345146 0.25127265 0.76700002 4282269497
0.03480877 0.25061744 0.76500005 4282071605
0.036253303 0.25061744 0.76500005 4286940287
0.03759928 0.24996221 0.76300001 4289374882
0.039040036 0.24996221 0.76300001 4290427570
0.040533848 0.25028983 0.76400006 4289900971
0.042031433 0.25061744 0.76500005 4286282357
0.043646462 0.25160024 0.76800001 4282269497
0.045096662 0.25160024 0.76800001 4282137911
0.046607468 0.25192785 0.76900005 4281085736
0.047934562 0.25127265 0.76700002 4285559660
0.049318489 0.25094503 0.76600003 4287994001
0.050764911 0.25094503 0.76600003 4289441447
0.052211333 0.25094503 0.76600003 4289572520
0.053657755 0.25094503 0.76600003 4284967010
0.055176109 0.25127265 0.76700002 4286611835
0.05662442 0.25127265 0.76700002 4289901486
0.057997018 0.25094503 0.76600003 4290559162
0.05944344 0.25094503 0.76600003 4291414471
0.060889862 0.25094503 0.76600003 4285624689
0.062336281 0.25094503 0.76600003 4283519313
0.063616171 0.25028983 0.76400006 4282861385
0.06505882 0.25028983 0.76400006 4283519315
0.066501461 0.25028983 0.76400006 4284835175
0.06812197 0.25094503 0.76600003 4287269516
0.069750033 0.25160024 0.76800001 4288453788
0.071292944 0.25192785 0.76900005 4285229931
0.072745025 0.25192785 0.76900005 4284111448
0.074197114 0.25192785 0.76900005 4285164390
0.075649202 0.25192785 0.76900005 4286677886
0.076900758 0.25127265 0.76700002 4288191380
0.078144774 0.25061744 0.76500005 4288257173
0.079589307 0.25061744 0.76500005 4290757307
0.080821984 0.24996221 0.76300001 4282730561
0.082478374 0.25061744 0.76500005 4281348908
0.084142312 0.25127265 0.76700002 4284441179
0.085590623 0.25127265 0.76700002 4283520077
0.087038934 0.25127265 0.76700002 4281809459
0.088487238 0.25127265 0.76700002 4286217590
0.089818291 0.25094503 0.76600003 4289375399
0.09138386 0.25127265 0.76700002 4286085749
0.092953205 0.25160024 0.76800001 4284769378
0.094403401 0.25160024 0.76800001 4284966757
0.095853604 0.25160024 0.76800001 4284440926
0.097177103 0.25127265 0.76700002 4285625200
0.098496825 0.25094503 0.76600003 4288191129
0.099943243 0.25094503 0.76600003 4291612365
0.10138967 0.25094503 0.76600003 4286019960
0.10297034 0.25127265 0.76700002 4283650897
0.10441865 0.25127265 0.76700002 4282137658
0.10586696 0.25127265 0.76700002 4291085506
0.10731527 0.25127265 0.76700002 4291677643
0.10805456 0.24963462 0.76200002 4288717212
0.10949343 0.24963462 0.76200002 4287861903
0.11107788 0.24996221 0.76300001 4291677897
0.11266611 0.25028983 0.76400006 4288980384
0.11470618 0.25160024 0.76800001 4286282871
0.11615638 0.25160024 0.76800001 4289901486
0.11760657 0.25160024 0.76800001 4289178020
0.11859171 0.25061744 0.76500005 4282401084
0.12035006 0.25127265 0.76700002 4283914323
0.12179837 0.25127265 0.76700002 4290427831
0.12324668 0.25127265 0.76700002 4289901234
0.12485757 0.25160024 0.76800001 4282335293
0.12614331 0.25127265 0.76700002 4282138169
0.12759162 0.25127265 0.76700002 4283059271
0.12903993 0.25127265 0.76700002 4291020225
0.12946746 0.24930701 0.76100004 4290493880
0.13090444 0.24930701 0.76100004 4282335548
0.13234143 0.24930701 0.76100004 4283849042
0.13377841 0.24930701 0.76100004 4292073167
0.13557075 0.24996221 0.76300001 4288256918
0.13737065 0.25061744 0.76500005 4282598720
0.13935955 0.25160024 0.76800001 4281414446
0.14117645 0.25225547 0.77000004 4282993478
0.14225994 0.25160024 0.76800001 4285098599
0.14352302 0.25127265 0.76700002 4287401354
0.14478232 0.25094503 0.76600003 4288388763
0.14680144 0.25192785 0.76900005 4285362283
0.14825352 0.25192785 0.76900005 4285362025
0.15009496 0.25258306 0.77100003 4285362538
0.15155083 0.25258306 0.77100003 4285033318
0.15280825 0.25225547 0.77000004 4287796367
0.15406187 0.25192785 0.76900005 4290428087
0.15551396 0.25192785 0.76900005 4290428086
0.1563537 0.25094503 0.76600003 4289244068
0.15883014 0.25258306 0.77100003 4287994001
0.16049391 0.25291067 0.77200001 4283651663
0.16090275 0.25127265 0.76700002 4282401596
0.16192771 0.25061744 0.76500005 4288783517
0.16315868 0.25028983 0.76400006 4288849310
0.16417044 0.24963462 0.76200002 4289178275
0.16517465 0.24897942 0.76000005 4289835950
0.16660973 0.24897942 0.76000005 4291414471
0.16826592 0.24930701 0.76100004 4287137926
0.16992591 0.24963462 0.76200002 4284243034
0.17158967 0.24996221 0.76300001 4282598209
0.17303042 0.24996221 0.76300001 4285361515
0.17447118 0.24996221 0.76300001 4288914849
0.17614248 0.25028983 0.76400006 4284375131
0.17805003 0.25094503 0.76600003 4282203962
0.17973077 0.25127265 0.76700002 4282335548
0.1814153 0.25160024 0.76800001 4283453772
0.1828655 0.25160024 0.76800001 4291546311
0.1843157 0.25160024 0.76800001 4290625209
0.18552402 0.25127265 0.76700002 4287993490
0.18648478 0.25061744 0.76500005 4286085494
0.18817498 0.25094503 0.76600003 4285098599
0.18986896 0.25127265 0.76700002 4285230440
0.19181612 0.25192785 0.76900005 4285164647
0.19402219 0.25291067 0.77200001 4285822577
0.19547994 0.25291067 0.77200001 4285954419
0.1969377 0.25291067 0.77200001 4288257173
0.19788146 0.25225547 0.77000004 4288520345
0.19855881 0.25127265 0.76700002 4289112482
0.19974634 0.25094503 0.76600003 4290559415
-0.19986331 0.25107053 0.76200002 4282006585
-0.19894525 0.25172949 0.76400006 4282598979
-0.19724409 0.25139999 0.76300001 4282993996
-0.19529009 0.250741 0.76100004 4287073416
-0.19385311 0.250741 0.76100004 4286876037
-0.19241613 0.250741 0.76100004 4284639075
-0.19097915 0.250741 0.76100004 4283849559
-0.18979123 0.25107053 0.76200002 4283783766
-0.18884674 0.25172949 0.76400006 4282862664
-0.18764938 0.25205898 0.76500005 4283586644
-0.18620485 0.25205898 0.76500005 4284310110
-0.18476032 0.25205898 0.76500005 4286086521
-0.18331578 0.25205898 0.76500005 4281546802
-0.18163352 0.25172949 0.76400006 4281349424
-0.18019088 0.25172949 0.76400006 4282665285
-0.17898218 0.25205898 0.76500005 4283059786
-0.17730558 0.25172949 0.76400006 4280888104
-0.17540255 0.25107053 0.76200002 4282796101
-0.1737354 0.250741 0.76100004 4290428089
-0.17229842 0.250741 0.76100004 4287927956
-0.17086142 0.250741 0.76100004 4286875269
-0.16942444 0.250741 0.76100004 4284835943
-0.16798747 0.250741 0.76100004 4284704614
-0.16633162 0.25041154 0.76000005 4284573029
-0.16467957 0.25008205 0.75900006 4286020219
-0.16324636 0.25008205 0.75900006 4287532945
-0.16181317 0.25008205 0.75900006 4285164397
-0.16080257 0.250741 0.76100004 4284440673
-0.15978442 0.25139999 0.76300001 4282664517
-0.15855119 0.25172949 0.76400006 4281480499
-0.15608035 0.25008205 0.75900006 4283454800
-0.15444338 0.24975255 0.75800002 4285757554
-0.15301207 0.24975255 0.75800002 4289705135
-0.15178074 0.25008205 0.75900006 4289639343
-0.15034753 0.25008205 0.75900006 4290165686
-0.14891434 0.25008205 0.75900006 4285362797
-0.14748113 0.25008205 0.75900006 4286415487
-0.14624034 0.25041154 0.76000005 4290428604
-0.14499578 0.250741 0.76100004 4287139210
-0.14393608 0.25139999 0.76300001 4286283900
-0.14286885 0.25205898 0.76500005 4283388752
-0.14179404 0.25271797 0.76700002 4281349170
-0.14016277 0.25238845 0.76600003 4280757032
-0.13835417 0.25172949 0.76400006 4282730820
-0.13637391 0.250741 0.76100004 4287664781
-0.1345823 0.25008205 0.75900006 4288980641
-0.1333245 0.25041154 0.76000005 4290230708
-0.13188942 0.25041154 0.76000005 4289178533
-0.13079762 0.25107053 0.76200002 4284704866
-0.12969829 0.25172949 0.76400006 4281020458
-0.12842351 0.25205898 0.76500005 4284573281
-0.12664701 0.25139999 0.76300001 4287731091
-0.12504214 0.25107053 0.76200002 4284967786
-0.12327886 0.25041154 0.76000005 4284573283
-0.12184377 0.25041154 0.76000005 4284310112
-0.12040868 0.25041154 0.76000005 4283717719
-0.11928668 0.25107053 0.76200002 4286875526
-0.11800247 0.25139999 0.76300001 4285493873
-0.11686724 0.25205898 0.76500005 4284638563
-0.11557359 0.25238845 0.76600003 4282862408
-0.11397818 0.25205898 0.76500005 4280954667
-0.11238654 0.25172949 0.76400006 4285954935
-0.11065347 0.25107053 0.76200002 4288784034
-0.10907128 0.250741 0.76100004 4289112999
-0.10749285 0.25041154 0.76000005 4285691763
-0.10605776 0.25041154 0.76000005 4284639075
-0.10448501 0.25008205 0.75900006 4282336320
-0.10278026 0.24942307 0.75700003 4281546804
-0.10135083 0.24942307 0.75700003 4284112731
-0.1000534 0.24975255 0.75800002 4287468174
-0.098752193 0.25008205 0.75900006 4282731077
-0.097575434 0.250741 0.76100004 4283323213
-0.096138455 0.250741 0.76100004 4287467659
-0.094577022 0.25041154 0.76000005 4287006851
-0.093141928 0.25041154 0.76000005 4289835950
-0.091586173 0.25008205 0.75900006 4288125332
-0.090152971 0.25008205 0.75900006 4287204231
-0.088836655 0.25041154 0.76000005 4286217337
-0.087516569 0.250741 0.76100004 4286019958
-0.086192705 0.25107053 0.76200002 4283454287
-0.084865056 0.25139999 0.76300001 4283322445
-0.083533637 0.25172949 0.76400006 4283980375
-0.082090989 0.25172949 0.76400006 4283387980
-0.080542788 0.25139999 0.76300001 4283980115
-0.078791007 0.25041154 0.76000005 4286019699
-0.077355914 0.25041154 0.76000005 4286348663
-0.07582093 0.25008205 0.75900006 4288848797
-0.074485734 0.25041154 0.76000005 4287730316
-0.073146768 0.250741 0.76100004 4281940532
-0.071804017 0.25107053 0.76200002 4281348395
-0.070365146 0.25107053 0.76200002 4281151016
-0.068835825 0.250741 0.76100004 4285690733
-0.067310274 0.25041154 0.76000005 4286217077
-0.06587518 0.25041154 0.76000005 4282137911
-0.064524882 0.250741 0.76100004 4282466876
-0.063005 0.25041154 0.76000005 4282927427
-0.061488893 0.25008205 0.75900006 4287269764
-0.059976567 0.24975255 0.75800002 4289440933
-0.05854525 0.24975255 0.75800002 4286743677
-0.057189282 0.25008205 0.75900006 4285954161
-0.055902999 0.250741 0.76100004 4287270021
-0.054466017 0.250741 0.76100004 4283914321
-0.053098723 0.25107053 0.76200002 4280822051
-0.051659856 0.25107053 0.76200002 4284769631
-0.050155077 0.250741 0.76100004 4286019698
-0.048654079 0.25041154 0.76000005 4287401352
-0.047156855 0.25008205 0.75900006 4287861902
-0.045723651 0.25008205 0.75900006 4285230696
-0.044348802 0.25041154 0.76000005 4283059526
-0.042970177 0.250741 0.76100004 4282730561
-0.041587774 0.25107053 0.76200002 4282598975
-0.040148906 0.25107053 0.76200002 4283059526
-0.038608436 0.25041154 0.76000005 4285822319
-0.037124429 0.25008205 0.75900006 4284440666
-0.035785273 0.250741 0.76100004 4283256649
-0.034348294 0.250741 0.76100004 4281414702
-0.033041056 0.25172949 0.76400006 4281085736
-0.031681128 0.25238845 0.76600003 4282204217
-0.030195238 0.25205898 0.76500005 4282993733
-0.028675538 0.25139999 0.76300001 4289046689
-0.027234782 0.25139999 0.76300001 4285428074
-0.025760219 0.25107053 0.76200002 4280756514
-0.024289433 0.250741 0.76100004 4284177494
-0.022852452 0.250741 0.76100004 4287072387
-0.021387331 0.25041154 0.76000005 4282072119
-0.019952238 0.25041154 0.76000005 4280756259
-0.018541511 0.250741 0.76100004 4281085224
-0.017082054 0.25041154 0.76000005 4283453772
-0.015626375 0.25008205 0.75900006 4288585626
-0.014211871 0.25041154 0.76000005 4281940533
-0.012776778 0.25041154 0.76000005 4281216810
-0.011356609 0.250741 0.76100004 4288256661
-0.0099326642 0.25107053 0.76200002 4289046177
-0.008471502 0.25041154 0.76000005 4284967011
-0.0070364093 0.25041154 0.76000005 4285624940
-0.0056086876 0.250741 0.76100004 4289440934
-0.0041717072 0.250741 0.76100004 4286611835
-0.0027383203 0.25107053 0.76200002 4287730316
-0.0013011573 0.25139999 0.76300001 4290098864
0.00013959971 0.25139999 0.76300001 4287598988
0.0015824279 0.25172949 0.76400006 4281217068
0.0030290326 0.25205898 0.76500005 4282335291
0.0044794139 0.25238845 0.76600003 4283716690
0.0059180991 0.25205898 0.76500005 4284309340
0.0073626325 0.25205898 0.76500005 4283190859
0.0088071665 0.25205898 0.76500005 4281677363
0.010238299 0.25172949 0.76400006 4282335291
0.011665655 0.25139999 0.76300001 4283716944
0.013089234 0.25107053 0.76200002 4287861902
0.014470906 0.25008205 0.75900006 4288914590
0.01590411 0.25008205 0.75900006 4289704106
0.017382996 0.250741 0.76100004 4288322453
0.018844709 0.25107053 0.76200002 4282072118
0.020310197 0.25139999 0.76300001 4282993220
0.021722447 0.25107053 0.76200002 4284177494
0.023130918 0.250741 0.76100004 4287204230
0.024535615 0.25041154 0.76000005 4287138437
0.026004879 0.250741 0.76100004 4284638558
0.027477922 0.25107053 0.76200002 4283651663
0.028954739 0.25139999 0.76300001 4283980628
0.030435331 0.25172949 0.76400006 4286020211
0.03187798 0.25172949 0.76400006 4287204485
0.033320624 0.25172949 0.76400006 4283256392
0.034717765 0.25139999 0.76300001 4283322185
0.035968963 0.25008205 0.75900006 4287400838
0.037402168 0.25008205 0.75900006 4289308835
0.038886536 0.25041154 0.76000005 4290756281
0.040374685 0.250741 0.76100004 4287992975
0.041866604 0.25107053 0.76200002 4286085491
0.043475967 0.25205898 0.76500005 4282861634
0.044979222 0.25238845 0.76600003 4281808946
0.046425644 0.25238845 0.76600003 4281480494
0.047747076 0.25172949 0.76400006 4285559660
0.049060948 0.25107053 0.76200002 4288191380
0.050499815 0.25107053 0.76200002 4289704619
0.051938687 0.25107053 0.76200002 4291152065
0.053447604 0.25139999 0.76300001 4286480762
0.054888364 0.25139999 0.76300001 4287007106
0.056402948 0.25172949 0.76400006 4291019967
0.057769876 0.25139999 0.76300001 4291085760
0.059055429 0.250741 0.76100004 4291019713
0.060492408 0.250741 0.76100004 4286019445
0.061929386 0.250741 0.76100004 4284111448
0.063532904 0.25139999 0.76300001 4283058762
0.065143973 0.25205898 0.76500005 4282992971
0.066588506 0.25205898 0.76500005 4285493105
0.06803304 0.25205898 0.76500005 4287203723
0.069477573 0.25205898 0.76500005 4289309099
0.070829399 0.25172949 0.76400006 4286216826
0.07236664 0.25205898 0.76500005 4285229929
0.073907651 0.25238845 0.76600003 4285361515
0.075354077 0.25238845 0.76600003 4285559405
0.07670024 0.25205898 0.76500005 4287927953
0.077838324 0.25107053 0.76200002 4288059539
0.079277188 0.25107053 0.76200002 4292073167
0.080610134 0.250741 0.76100004 4290494135
0.08215493 0.25107053 0.76200002 4282072631
0.083813205 0.25172949 0.76400006 4284770144
0.085367441 0.25205898 0.76500005 4284112214
0.086698495 0.25172949 0.76400006 4281875252
0.088256508 0.25205898 0.76500005 4285033316
0.089818291 0.25238845 0.76600003 4289770412
0.091264717 0.25238845 0.76600003 4286809215
0.09283217 0.25271797 0.76700002 4285164136
0.094157562 0.25238845 0.76600003 4284966500
0.09560398 0.25238845 0.76600003 4284835173
0.096797012 0.25172949 0.76400006 4284637794
0.098111071 0.25139999 0.76300001 4284243036
0.099421352 0.25107053 0.76200002 4291546059
0.10086022 0.25107053 0.76200002 4287072135
0.10243334 0.25139999 0.76300001 4284572000
0.10401024 0.25172949 0.76400006 4282400830
0.10545288 0.25172949 0.76400006 4284637792
0.10675561 0.25139999 0.76300001 4291546057
0.10805456 0.25107053 0.76200002 4288585372
0.10949343 0.25107053 0.76200002 4289111716
0.1109323 0.25107053 0.76200002 4291546311
0.11251864 0.25139999 0.76300001 4290954174
0.11410876 0.25172949 0.76400006 4285756527
0.11570264 0.25205898 0.76500005 4285822577
0.11730031 0.25238845 0.76600003 4291283396
0.11843669 0.25172949 0.76400006 4287204230
0.11987934 0.25172949 0.76400006 4281546032
0.12132198 0.25172949 0.76400006 4288914849
0.12292531 0.25205898 0.76500005 4291086019
0.12420727 0.25172949 0.76400006 4283388238
0.12564991 0.25172949 0.76400006 4282664513
0.12709256 0.25172949 0.76400006 4281809204
0.12819873 0.25107053 0.76200002 4287138439
0.12946746 0.250741 0.76100004 4291283396
0.13090444 0.250741 0.76100004 4284638302
0.13234143 0.250741 0.76100004 4283125319
0.13360262 0.25041154 0.76000005 4292204497
0.13521539 0.250741 0.76100004 4290164915
0.13719107 0.25172949 0.76400006 4285296233
0.1391781 0.25271797 0.76700002 4282862406
0.14080974 0.25304744 0.76800001 4281744181
0.14225994 0.25304744 0.76800001 4283980631
0.14352302 0.25271797 0.76700002 4287533454
0.14459331 0.25205898 0.76500005 4289376171
0.14603785 0.25205898 0.76500005 4286678145
0.14767516 0.25238845 0.76600003 4286085750
0.14931627 0.25271797 0.76700002 4285954420
0.15096113 0.25304744 0.76800001 4285888627
0.15241134 0.25304744 0.76800001 4288323224
0.15326051 0.25205898 0.76500005 4290231478
0.15470505 0.25205898 0.76500005 4290494649
0.15614958 0.25205898 0.76500005 4289244325
0.15780011 0.25238845 0.76600003 4288191380
0.15945444 0.25271797 0.76700002 4283520077
0.16069296 0.25238845 0.76600003 4281941045
0.16171604 0.25172949 0.76400006 4287336071
0.16294514 0.25139999 0.76300001 4288980896
0.16395499 0.250741 0.76100004 4289441447
0.16473997 0.24975255 0.75800002 4289901743
0.16617128 0.24975255 0.75800002 4290888638
0.1676026 0.24975255 0.75800002 4288980129
0.16925691 0.25008205 0.75900006 4284111447
0.1711399 0.250741 0.76100004 4282927429
0.17280366 0.25107053 0.76200002 4282861635
0.17447118 0.25139999 0.76300001 4288585883
0.17614248 0.25172949 0.76400006 4287730574
0.17805003 0.25238845 0.76600003 4281875253
0.17949644 0.25238845 0.76600003 4281809459
0.18094286 0.25238845 0.76600003 4281085736
0.18215118 0.25205898 0.76500005 4288849054
0.18359572 0.25205898 0.76500005 4289638571
0.18455648 0.25139999 0.76300001 4289638571
0.18575348 0.25107053 0.76200002 4286612095
0.187438 0.25139999 0.76300001 4285296235
0.18937385 0.25205898 0.76500005 4285690993
0.19131726 0.25271797 0.76700002 4285756786
0.19301689 0.25304744 0.76800001 4285690991
0.1947203 0.25337693 0.76900005 4285296233
0.19566219 0.25271797 0.76700002 4288388504
0.1968535 0.25238845 0.76600003 4287796367
0.19804105 0.25205898 0.76500005 4288783517
0.19922481 0.25172949 0.76400006 4290559415
-0.19868486 0.25283778 0.76300001 4282664515
-0.19698557 0.25250641 0.76200002 4284046684
-0.19503346 0.25184366 0.76000005 4290494398
-0.19359837 0.25184366 0.76000005 4287467920
-0.19216329 0.25184366 0.76000005 4284573028
-0.19072819 0.25184366 0.76000005 4283717719
-0.18979123 0.25250641 0.76200002 4283849305
-0.18859956 0.25283778 0.76300001 4283651928
-0.18715879 0.25283778 0.76300001 4283322963
-0.18596146 0.25316915 0.76400006 4286941576
-0.18476032 0.25350052 0.76500005 4286283900
-0.18307616 0.25316915 0.76400006 4282073148
-0.18139577 0.25283778 0.76300001 4281480755
-0.17995501 0.25283778 0.76300001 4283059530
-0.17851426 0.25283778 0.76300001 4283059273
-0.17707349 0.25283778 0.76300001 4280888104
-0.17517237 0.25217503 0.76100004 4285690993
-0.17350708 0.25184366 0.76000005 4290625468
-0.17207199 0.25184366 0.76000005 4287993748
-0.17041239 0.25151229 0.75900006 4287467404
-0.16897918 0.25151229 0.75900006 4284769891
-0.16754597 0.25151229 0.75900006 4284375133
-0.16589391 0.25118089 0.75800002 4284572513
-0.1644626 0.25118089 0.75800002 4286677891
-0.1628162 0.25084955 0.75700003 4287204234
-0.16159996 0.25118089 0.75800002 4284440929
-0.16059126 0.25184366 0.76000005 4282598725
-0.159575 0.25250641 0.76200002 4281677622
-0.15813613 0.25250641 0.76200002 4282072636
-0.1558747 0.25118089 0.75800002 4284046938
-0.15444338 0.25118089 0.75800002 4288520861
-0.15301207 0.25118089 0.75800002 4289310376
-0.15178074 0.25151229 0.75900006 4289244583
-0.15054561 0.25184366 0.76000005 4286481277
-0.14911053 0.25184366 0.76000005 4283717972
-0.14767542 0.25184366 0.76000005 4286875781
-0.14643276 0.25217503 0.76100004 4289836209
-0.14499578 0.25217503 0.76100004 4286810244
-0.14393608 0.25283778 0.76300001 4284046938
-0.14286885 0.25350052 0.76500005 4281217839
-0.14160919 0.25383189 0.76600003 4281020460
-0.13997978 0.25350052 0.76500005 4281283631
-0.13817306 0.25283778 0.76300001 4284507231
-0.13619469 0.25184366 0.76000005 4287533195
-0.13440497 0.25118089 0.75800002 4288191125
-0.13314909 0.25151229 0.75900006 4289704364
-0.1322365 0.25250641 0.76200002 4288125588
-0.13079762 0.25250641 0.76200002 4283454798
-0.12952852 0.25283778 0.76300001 4280954664
-0.12808776 0.25283778 0.76300001 4285231209
-0.12664701 0.25283778 0.76300001 4287205001
-0.12487806 0.25217503 0.76100004 4285033833
-0.12327886 0.25184366 0.76000005 4284375904
-0.12184377 0.25184366 0.76000005 4283586132
-0.12025025 0.25151229 0.75900006 4283586133
-0.11913013 0.25217503 0.76100004 4287993495
-0.11784782 0.25250641 0.76200002 4286480257
-0.11671448 0.25316915 0.76400006 4284572515
-0.11542271 0.25350052 0.76500005 4282730823
-0.11382919 0.25316915 0.76400006 4282007099
-0.11209234 0.25250641 0.76200002 4289244586
-0.11050826 0.25217503 0.76100004 4289573295
-0.10907128 0.25217503 0.76100004 4290363067
-0.10749285 0.25184366 0.76000005 4287270795
-0.10591821 0.25151229 0.75900006 4283849558
-0.10434735 0.25118089 0.75800002 4282007353
-0.10264449 0.25051817 0.75600004 4282007354
-0.10121695 0.25051817 0.75600004 4285823348
-0.099921405 0.25084955 0.75700003 4288455068
-0.098752193 0.25151229 0.75900006 4282862663
-0.097447209 0.25184366 0.76000005 4281678131
-0.096138455 0.25217503 0.76100004 4286217335
-0.094577022 0.25184366 0.76000005 4287072645
-0.093141928 0.25184366 0.76000005 4289901744
-0.091586173 0.25151229 0.75900006 4287730575
-0.090152971 0.25151229 0.75900006 4286480509
-0.088719763 0.25151229 0.75900006 4285822579
-0.087516569 0.25217503 0.76100004 4285690993
-0.086192705 0.25250641 0.76200002 4283848789
-0.084865056 0.25283778 0.76300001 4283388239
-0.083533637 0.25316915 0.76400006 4283716690
-0.082090989 0.25316915 0.76400006 4283124552
-0.080648348 0.25316915 0.76400006 4283914322
-0.078791007 0.25184366 0.76000005 4285230182
-0.077254131 0.25151229 0.75900006 4285427561
-0.07582093 0.25151229 0.75900006 4289046176
-0.074387729 0.25151229 0.75900006 4288454038
-0.073050641 0.25184366 0.76000005 4282072118
-0.071804017 0.25250641 0.76200002 4281414188
-0.070365146 0.25250641 0.76200002 4281085480
-0.068835825 0.25217503 0.76100004 4285953905
-0.067310274 0.25184366 0.76000005 4283914322
-0.065961868 0.25217503 0.76100004 4281151016
-0.064609669 0.25250641 0.76200002 4282137911
-0.063087903 0.25217503 0.76100004 4282730047
-0.061569907 0.25184366 0.76000005 4287467142
-0.059818316 0.25051817 0.75600004 4289572518
-0.058390778 0.25051817 0.75600004 4286940798
-0.057189282 0.25151229 0.75900006 4285756526
-0.05582954 0.25184366 0.76000005 4287335558
-0.054466017 0.25217503 0.76100004 4284111700
-0.053098723 0.25250641 0.76200002 4280887844
-0.051659856 0.25250641 0.76200002 4284506459
-0.050155077 0.25217503 0.76100004 4286414456
-0.048654079 0.25184366 0.76000005 4287796366
-0.047156855 0.25151229 0.75900006 4287796622
-0.045723651 0.25151229 0.75900006 4286283383
-0.044348802 0.25184366 0.76000005 4284506972
-0.042970177 0.25217503 0.76100004 4282533182
-0.041533194 0.25217503 0.76100004 4283191112
-0.040148906 0.25250641 0.76200002 4283256905
-0.038608436 0.25184366 0.76000005 4285493867
-0.036977693 0.25051817 0.75600004 4284309593
-0.035644203 0.25118089 0.75800002 4283059526
-0.034258023 0.25151229 0.75900006 4281414701
-0.032997809 0.25283778 0.76300001 4281217579
-0.03163977 0.25350052 0.76500005 4282664768
-0.029997883 0.25184366 0.76000005 4284375386
-0.028637955 0.25250641 0.76200002 4289573033
-0.027199086 0.25250641 0.76200002 4286743678
-0.025760219 0.25250641 0.76200002 4281151273
-0.024289433 0.25217503 0.76100004 4284440667
-0.022732332 0.25084955 0.75700003 4286809215
-0.021274766 0.25051817 0.75600004 4282335291
-0.019952238 0.25184366 0.76000005 4280559137
-0.018517146 0.25184366 0.76000005 4280953895
-0.017059578 0.25151229 0.75900006 4284243287
-0.015585197 0.25084955 0.75700003 4288783004
-0.014155771 0.25084955 0.75700003 4282203705
-0.012759966 0.25151229 0.75900006 4281414189
-0.011341686 0.25184366 0.76000005 4288585625
-0.0099065937 0.25184366 0.76000005 4288388246
-0.008449208 0.25118089 0.75800002 4283848530
-0.0070086345 0.25084955 0.75700003 4284638045
-0.0055865771 0.25118089 0.75800002 4289704106
-0.0041552619 0.25118089 0.75800002 4286743934
-0.0027275397 0.25151229 0.75900006 4287533450
-0.0012943359 0.25151229 0.75900006 4288520345
0.00013905083 0.25184366 0.76000005 4288322966
0.0015803565 0.25283778 0.76300001 4282532926
0.0030250731 0.25316915 0.76400006 4281414447
0.0044735656 0.25350052 0.76500005 4283059016
0.0059180991 0.25350052 0.76500005 4284506719
0.0073626325 0.25350052 0.76500005 4283388239
0.0088071665 0.25350052 0.76500005 4282137658
0.010238299 0.25316915 0.76400006 4282203707
0.011665655 0.25283778 0.76300001 4283387979
0.013020525 0.25118089 0.75800002 4286217078
0.014432774 0.25084955 0.75700003 4288980384
0.015862202 0.25084955 0.75700003 4289638314
0.017337313 0.25151229 0.75900006 4288914590
0.018795246 0.25184366 0.76000005 4282466876
0.02023034 0.25184366 0.76000005 4284177494
0.021636924 0.25151229 0.75900006 4284901217
0.023039734 0.25118089 0.75800002 4287072386
0.024471048 0.25118089 0.75800002 4286612092
0.025936536 0.25151229 0.75900006 4284572509
0.027369739 0.25151229 0.75900006 4283980628
0.028802944 0.25151229 0.75900006 4284112214
0.030395495 0.25283778 0.76300001 4284967523
0.031836253 0.25283778 0.76300001 4286612348
0.033277009 0.25283778 0.76300001 4284309080
0.034490258 0.25118089 0.75800002 4282598462
0.03587418 0.25084955 0.75700003 4287466886
0.037254333 0.25051817 0.75600004 4288848797
0.038733035 0.25084955 0.75700003 4290690744
0.040215518 0.25118089 0.75800002 4288651418
0.041646834 0.25118089 0.75800002 4288322453
0.043191813 0.25184366 0.76000005 4284506459
0.044744343 0.25250641 0.76200002 4281808946
0.04618321 0.25250641 0.76200002 4281809459
0.047559585 0.25217503 0.76100004 4284967523
0.048867799 0.25151229 0.75900006 4288257173
0.050301 0.25151229 0.75900006 4288980896
0.051734205 0.25151229 0.75900006 4290362549
0.053237457 0.25184366 0.76000005 4287072899
0.05467255 0.25184366 0.76000005 4285822832
0.056033816 0.25151229 0.75900006 4289572777
0.057391305 0.25118089 0.75800002 4291151810
0.058822621 0.25118089 0.75800002 4292072655
0.060253937 0.25118089 0.75800002 4288651165
0.061685253 0.25118089 0.75800002 4284835171
0.063532904 0.25283778 0.76300001 4282992969
0.065229125 0.25383189 0.76600003 4282927176
0.066588506 0.25350052 0.76500005 4284111450
0.067855172 0.25283778 0.76300001 4284835173
0.06911429 0.25217503 0.76100004 4288848546
0.070551269 0.25217503 0.76100004 4287861650
0.071988247 0.25217503 0.76100004 4285822321
0.073521718 0.25250641 0.76200002 4285362026
0.075058959 0.25283778 0.76300001 4285099624
0.076399453 0.25250641 0.76200002 4287598988
0.077634029 0.25184366 0.76000005 4288454297
0.079069115 0.25184366 0.76000005 4291152579
0.080610134 0.25217503 0.76100004 4289901998
0.08215493 0.25250641 0.76200002 4283322185
0.083703503 0.25283778 0.76300001 4284309593
0.085144259 0.25283778 0.76300001 4284572765
0.086471535 0.25250641 0.76200002 4283322698
0.088025771 0.25283778 0.76300001 4284243800
0.089466527 0.25283778 0.76300001 4288980896
0.090907283 0.25283778 0.76300001 4285888370
0.092227004 0.25250641 0.76200002 4286216824
0.093788795 0.25283778 0.76300001 4285098345
0.095354363 0.25316915 0.76400006 4285558894
0.096670315 0.25283778 0.76300001 4284177243
0.097982481 0.25250641 0.76200002 4285098345
0.099421352 0.25250641 0.76200002 4292203989
0.10072786 0.25217503 0.76100004 4288716960
0.10203059 0.25184366 0.76000005 4284506206
0.10360181 0.25217503 0.76100004 4281808693
0.1050388 0.25217503 0.76100004 4281545776
0.10647578 0.25217503 0.76100004 4289703596
0.10777096 0.25184366 0.76000005 4289769387
0.10906236 0.25151229 0.75900006 4288585369
0.11049556 0.25151229 0.75900006 4290362037
0.11207624 0.25184366 0.76000005 4291612104
0.11366068 0.25217503 0.76100004 4287927953
0.1152489 0.25250641 0.76200002 4285362028
0.11668777 0.25250641 0.76200002 4290362296
0.11812665 0.25250641 0.76200002 4288125079
0.11956551 0.25250641 0.76200002 4281743413
0.12100438 0.25250641 0.76200002 4288388506
0.12244325 0.25250641 0.76200002 4291743951
0.12388212 0.25250641 0.76200002 4285362028
0.12532099 0.25250641 0.76200002 4282335548
0.1265935 0.25217503 0.76100004 4281611825
0.127694 0.25151229 0.75900006 4284835684
0.1291272 0.25151229 0.75900006 4291612361
0.13056041 0.25151229 0.75900006 4284638303
0.13181971 0.25118089 0.75800002 4282138169
0.13325103 0.25118089 0.75800002 4291414982
0.13468234 0.25118089 0.75800002 4289112483
0.13647281 0.25184366 0.76000005 4286283898
0.13845226 0.25283778 0.76300001 4284046936
0.14007635 0.25316915 0.76400006 4281678389
0.14170425 0.25350052 0.76500005 4283915352
0.14296165 0.25316915 0.76400006 4287073416
0.14421529 0.25283778 0.76300001 4288783521
0.14546515 0.25250641 0.76200002 4288059541
0.1470968 0.25283778 0.76300001 4286546301
0.14873223 0.25316915 0.76400006 4285954163
0.15037145 0.25350052 0.76500005 4286348921
0.15201443 0.25383189 0.76600003 4289572777
0.15285984 0.25283778 0.76300001 4290099377
0.15409836 0.25250641 0.76200002 4290954686
0.1553331 0.25217503 0.76100004 4290428342
0.1569761 0.25250641 0.76200002 4289770926
0.15862286 0.25283778 0.76300001 4286481019
0.16006361 0.25283778 0.76300001 4282006838
0.16108103 0.25217503 0.76100004 4286283383
0.16230446 0.25184366 0.76000005 4289573033
0.16309321 0.25084955 0.75700003 4289375654
0.16452263 0.25084955 0.75700003 4289309605
0.16573283 0.25051817 0.75600004 4289769902
0.1673815 0.25084955 0.75700003 4290098868
0.16881092 0.25084955 0.75700003 4284374620
0.17069012 0.25151229 0.75900006 4283650896
0.17257687 0.25217503 0.76100004 4283059014
0.17424253 0.25250641 0.76200002 4286743679
0.17591195 0.25283778 0.76300001 4287730574
0.17758514 0.25316915 0.76400006 4283520077
0.17926212 0.25350052 0.76500005 4282664768
0.18070665 0.25350052 0.76500005 4281085736
0.18167497 0.25283778 0.76300001 4289243812
0.18287574 0.25250641 0.76200002 4289770157
0.18407272 0.25217503 0.76100004 4288717471
0.1855097 0.25217503 0.76100004 4288520090
0.18694668 0.25217503 0.76100004 4285427819
0.1891263 0.25316915 0.76400006 4285297003
0.19106781 0.25383189 0.76600003 4285165417
0.19276556 0.25416327 0.76700002 4284046936
0.19396065 0.25383189 0.76600003 4286086519
0.19489688 0.25316915 0.76400006 4288322711
0.19633952 0.25316915 0.76400006 4288059794
0.19778217 0.25316915 0.76400006 4288717724
0.19896406 0.25283778 0.76300001 4289177762
-0.19933875 0.25327578 0.76000005 4281282862
-0.19816406 0.25360903 0.76100004 4283059273
-0.19646856 0.25327578 0.76000005 4284638821
-0.19426359 0.252276 0.75700003 4291020742
-0.19283417 0.252276 0.75700003 4286744197
-0.19140474 0.252276 0.75700003 4283257168
-0.18997531 0.252276 0.75700003 4283717720
-0.18904404 0.25294253 0.75900006 4283717721
-0.187858 0.25327578 0.76000005 4283980893
-0.18617763 0.25294253 0.75900006 4284046686
-0.18523124 0.25360903 0.76100004 4287336334
-0.18379426 0.25360903 0.76100004 4284441185
-0.18211764 0.25327578 0.76000005 4282269757
-0.18068254 0.25327578 0.76000005 4281677622
-0.17924745 0.25327578 0.76000005 4283914582
-0.1775784 0.25294253 0.75900006 4282138171
-0.1761452 0.25294253 0.75900006 4281019690
-0.174712 0.25294253 0.75900006 4286414716
-0.17305049 0.25260925 0.75800002 4289770159
-0.17139275 0.252276 0.75700003 4287598990
-0.16996333 0.252276 0.75700003 4285954165
-0.16808864 0.2516095 0.75500005 4284769891
-0.16644225 0.25127622 0.75400001 4283980376
-0.16501848 0.25127622 0.75400001 4284177756
-0.16359472 0.25127622 0.75400001 4286809476
-0.16152573 0.25027645 0.75100005 4286612097
-0.16117358 0.25194275 0.75600004 4283848791
-0.16037996 0.25294253 0.75900006 4281152048
-0.15894675 0.25294253 0.75900006 4281546804
-0.15730602 0.25260925 0.75800002 4283191628
-0.15546343 0.25194275 0.75600004 4285165417
-0.15383214 0.2516095 0.75500005 4289902513
-0.15260835 0.25194275 0.75600004 4288915618
-0.15158075 0.25260925 0.75800002 4288849826
-0.15034753 0.25294253 0.75900006 4284836198
-0.14891434 0.25294253 0.75900006 4284243547
-0.14748113 0.25294253 0.75900006 4287401611
-0.14604792 0.25294253 0.75900006 4288322969
-0.14461473 0.25294253 0.75900006 4287468174
-0.1435588 0.25360903 0.76100004 4284639075
-0.14230858 0.25394231 0.76200002 4282007098
-0.14123945 0.25460881 0.76400006 4281677877
-0.13943084 0.25394231 0.76200002 4281874998
-0.13618104 0.25060973 0.75200003 4285493612
-0.13458186 0.25027645 0.75100005 4287401608
-0.13316377 0.25027645 0.75100005 4288652188
-0.13192108 0.25060973 0.75200003 4288323224
-0.13171588 0.25294253 0.75900006 4287928722
-0.13062598 0.25360903 0.76100004 4283849556
-0.129189 0.25360903 0.76100004 4280954664
-0.12758414 0.25327578 0.76000005 4286020725
-0.12598307 0.25294253 0.75900006 4287468173
-0.12422166 0.252276 0.75700003 4284507489
-0.12279224 0.252276 0.75700003 4282928457
-0.12136281 0.252276 0.75700003 4283849047
-0.11993339 0.252276 0.75700003 4283388240
-0.11850396 0.252276 0.75700003 4287664786
-0.11722919 0.25260925 0.75800002 4286151292
-0.1161034 0.25327578 0.76000005 4284243294
-0.11361216 0.25094298 0.75300002 4282401346
-0.11308423 0.25294253 0.75900006 4282927946
-0.11106262 0.2516095 0.75500005 4289902261
-0.10963696 0.2516095 0.75500005 4289310124
-0.10835464 0.25194275 0.75600004 4290428604
-0.10720998 0.25260925 0.75800002 4287205002
-0.10536001 0.2516095 0.75500005 4283191628
-0.10365904 0.25094298 0.75300002 4281744181
-0.10210139 0.25060973 0.75200003 4281546802
-0.10054752 0.25027645 0.75100005 4286547070
-0.099261425 0.25060973 0.75200003 4287402378
-0.098101653 0.25127622 0.75400001 4282073145
-0.09706255 0.252276 0.75700003 4282665026
-0.095759451 0.25260925 0.75800002 4287335816
-0.094328135 0.25260925 0.75800002 4287730575
-0.093019374 0.25294253 0.75900006 4289506987
-0.09146551 0.25260925 0.75800002 4287993749
-0.089915417 0.252276 0.75700003 4286414718
-0.088602878 0.25260925 0.75800002 4286019959
-0.086826548 0.2516095 0.75500005 4285625201
-0.085514024 0.25194275 0.75600004 4283125068
-0.084531374 0.25327578 0.76000005 4283651410
-0.083314963 0.25394231 0.76200002 4283914325
-0.081446297 0.25260925 0.75800002 4283256394
-0.079803862 0.25194275 0.75600004 4283124806
-0.078272648 0.2516095 0.75500005 4285624683
-0.07664343 0.25094298 0.75300002 4286282870
-0.075121664 0.25060973 0.75200003 4288914847
-0.073799685 0.25094298 0.75300002 4288125587
-0.072473928 0.25127622 0.75400001 4281743410
-0.071521319 0.25294253 0.75900006 4281283115
-0.070272803 0.25360903 0.76100004 4281282858
-0.068745367 0.25327578 0.76000005 4286151284
-0.067310274 0.25327578 0.76000005 4284572252
-0.06587518 0.25327578 0.76000005 4281545774
-0.064524882 0.25360903 0.76100004 4282137911
-0.063005 0.25327578 0.76000005 4282795841
-0.061245855 0.25194275 0.75600004 4287138178
-0.059739191 0.2516095 0.75500005 4287796108
-0.058236308 0.25127622 0.75400001 4286414456
-0.056887891 0.2516095 0.75500005 4285756526
-0.055609159 0.252276 0.75700003 4286480249
-0.054251306 0.25260925 0.75800002 4284638045
-0.05281999 0.25260925 0.75800002 4281019430
-0.051388673 0.25260925 0.75800002 4284045908
-0.049957357 0.25260925 0.75800002 4287730316
-0.048462026 0.252276 0.75700003 4288717211
-0.046970464 0.25194275 0.75600004 4286743678
-0.045542926 0.25194275 0.75600004 4286217077
-0.044232097 0.25260925 0.75800002 4284374873
-0.042913713 0.25327578 0.76000005 4282796354
-0.041478619 0.25327578 0.76000005 4283256905
-0.039832771 0.25194275 0.75600004 4283388491
-0.038354434 0.2516095 0.75500005 4284967268
-0.03692878 0.2516095 0.75500005 4283848787
-0.035550155 0.25194275 0.75600004 4282993478
-0.034122616 0.25194275 0.75600004 4281348908
-0.032738324 0.252276 0.75700003 4281152043
-0.031308897 0.252276 0.75700003 4282401596
-0.029879469 0.252276 0.75700003 4284967523
-0.028487625 0.25260925 0.75800002 4289967791
-0.027056308 0.25260925 0.75800002 4287335816
-0.025591187 0.252276 0.75700003 4281217067
-0.024097925 0.2516095 0.75500005 4283848530
-0.022642246 0.25127622 0.75400001 4288848798
-0.021190342 0.25094298 0.75300002 4284769378
-0.019794721 0.25127622 0.75400001 4281019431
-0.018419689 0.25194275 0.75600004 4281282603
-0.016969671 0.2516095 0.75500005 4284967523
-0.01556461 0.25194275 0.75600004 4289178275
-0.014155771 0.252276 0.75700003 4282993477
-0.012743155 0.25260925 0.75800002 4281480494
-0.011311838 0.25260925 0.75800002 4285822319
-0.0098805232 0.25260925 0.75800002 4289572520
-0.0084269149 0.25194275 0.75600004 4284440666
-0.0069808587 0.25127622 0.75400001 4284506459
-0.0055644666 0.2516095 0.75500005 4290230450
-0.0041388157 0.2516095 0.75500005 4288848797
-0.002716759 0.25194275 0.75600004 4286941056
-0.0012909252 0.252276 0.75700003 4287730829
0.0001386849 0.25260925 0.75800002 4287928208
0.0015700004 0.25260925 0.75800002 4281677874
0.0030052753 0.25294253 0.75900006 4280690725
0.004450175 0.25360903 0.76100004 4283519824
0.0059026275 0.25427553 0.76300001 4285822580
0.0073530083 0.25460881 0.76400006 4284901479
0.0087956535 0.25460881 0.76400006 4282796103
0.010211497 0.25394231 0.76200002 4281874743
0.011558631 0.25194275 0.75600004 4283059271
0.012968992 0.2516095 0.75500005 4285822832
0.014375577 0.25127622 0.75400001 4289638313
0.015820293 0.2516095 0.75500005 4289572520
0.01729163 0.252276 0.75700003 4289638313
0.018721057 0.252276 0.75700003 4282927427
0.020150485 0.252276 0.75700003 4284045908
0.021579912 0.252276 0.75700003 4284770144
0.022978941 0.25194275 0.75600004 4287270278
0.02440648 0.25194275 0.75600004 4286809727
0.02583402 0.25194275 0.75600004 4285164902
0.02729762 0.252276 0.75700003 4284506972
0.028727047 0.252276 0.75700003 4283849042
0.030156475 0.252276 0.75700003 4284967268
0.031585898 0.252276 0.75700003 4286677886
0.033015326 0.252276 0.75700003 4284440922
0.034399256 0.25194275 0.75600004 4282927427
0.035779402 0.2516095 0.75500005 4287861902
0.037155773 0.25127622 0.75400001 4287993488
0.038579535 0.25127622 0.75400001 4289375141
0.0400033 0.25127622 0.75400001 4289967278
0.041427061 0.25127622 0.75400001 4288585625
0.042964488 0.25194275 0.75600004 4285493354
0.044509467 0.25260925 0.75800002 4282861634
0.04600139 0.25294253 0.75900006 4282006581
0.047372095 0.25260925 0.75800002 4284967523
0.048739027 0.252276 0.75700003 4288257173
0.050168455 0.252276 0.75700003 4289244068
0.051597882 0.252276 0.75700003 4290823100
0.053027309 0.252276 0.75700003 4287467657
0.054456737 0.252276 0.75700003 4285230695
0.05581234 0.25194275 0.75600004 4289375141
0.057164162 0.2516095 0.75500005 4290954174
0.058512211 0.25127622 0.75400001 4291875276
0.060015462 0.2516095 0.75500005 4290296244
0.061441116 0.2516095 0.75500005 4285229929
0.063283108 0.25327578 0.76000005 4283058760
0.06497366 0.25427553 0.76300001 4282664002
0.066327371 0.25394231 0.76200002 4283124555
0.067499444 0.25294253 0.75900006 4284637794
0.068751007 0.252276 0.75700003 4288387995
0.070180438 0.252276 0.75700003 4287861651
0.071704462 0.25260925 0.75800002 4284835171
0.073232263 0.25294253 0.75900006 4284572512
0.074763842 0.25327578 0.76000005 4284177754
0.076098673 0.25294253 0.75900006 4286941060
0.077429719 0.25260925 0.75800002 4288520090
0.078861035 0.25260925 0.75800002 4289376169
0.080292352 0.25260925 0.75800002 4288389274
0.081723668 0.25260925 0.75800002 4282795841
0.083264686 0.25294253 0.75900006 4283717456
0.084697895 0.25294253 0.75900006 4283914835
0.086131096 0.25294253 0.75900006 4283322698
0.087564297 0.25294253 0.75900006 4283783249
0.088997506 0.25294253 0.75900006 4288783517
0.090311565 0.25260925 0.75800002 4286414714
0.091621846 0.252276 0.75700003 4286414716
0.093297116 0.25294253 0.75900006 4285756273
0.094979934 0.25360903 0.76100004 4285164136
0.09654361 0.25394231 0.76200002 4285032552
0.097853892 0.25360903 0.76100004 4286085240
0.099290878 0.25360903 0.76100004 4291743438
0.10033077 0.25260925 0.75800002 4289901234
0.10176209 0.25260925 0.75800002 4286151033
0.1031934 0.25260925 0.75800002 4282664002
0.10462472 0.25260925 0.75800002 4281348142
0.10605603 0.25260925 0.75800002 4290295990
0.10734554 0.252276 0.75700003 4291282885
0.10863128 0.25194275 0.75600004 4289309350
0.1102044 0.252276 0.75700003 4289901486
0.11163382 0.252276 0.75700003 4291612104
0.11321261 0.25260925 0.75800002 4289177763
0.11479517 0.25294253 0.75900006 4284769634
0.11622838 0.25294253 0.75900006 4288651421
0.1178166 0.25327578 0.76000005 4290625468
