# .PCD v0.7 - Point Cloud Data file format
VERSION 0.7
FIELDS x y z rgba
SIZE 4 4 4 4
TYPE F F F U
COUNT 1 1 1 1
WIDTH 1066
HEIGHT 1
VIEWPOINT 0 0 0 1 0 0 0
POINTS 1066
DATA ascii
0.13239291 0.24400164 0.80500007 4283323215
0.13391297 0.24400164 0.80500007 4285164647
0.13509655 0.24339543 0.80300003 4287401610
0.13644272 0.24309231 0.80200005 4291875535
0.13795713 0.24309231 0.80200005 4291151812
0.13947152 0.24309231 0.80200005 4289901231
0.14116171 0.24339543 0.80300003 4281874486
0.14285567 0.24369854 0.80400002 4282927174
0.14455342 0.24400164 0.80500007 4284506206
0.14643641 0.24460785 0.80700004 4287664781
0.14796025 0.24460785 0.80700004 4286941315
0.14985454 0.24521407 0.80900002 4285428332
0.15119505 0.24491097 0.80800003 4285164902
0.15253177 0.24460785 0.80700004 4284967523
0.15405561 0.24460785 0.80700004 4286941058
0.15577224 0.24491097 0.80800003 4286349177
0.15729797 0.24491097 0.80800003 4282533182
0.15902026 0.24521407 0.80900002 4285428075
0.15995252 0.24430475 0.80600005 4287335815
0.16107379 0.24369854 0.80400002 4290428342
0.16238974 0.24339543 0.80300003 4290165170
0.16370192 0.24309231 0.80200005 4289375654
0.16542232 0.24339543 0.80300003 4288059794
0.16714649 0.24369854 0.80400002 4282730561
0.16908424 0.24430475 0.80600005 4281282859
0.17081787 0.24460785 0.80700004 4284440667
0.17191459 0.24400164 0.80500007 4287664525
0.1732192 0.24369854 0.80400002 4288256407
0.17473738 0.24369854 0.80400002 4291282885
0.17647478 0.24400164 0.80500007 4286940290
0.17777373 0.24369854 0.80400002 4284769121
0.17906891 0.24339543 0.80300003 4290887870
0.18013541 0.24278921 0.80100006 4290953662
0.18142116 0.2424861 0.80000001 4291217346
0.18293178 0.2424861 0.80000001 4288585626
0.18490352 0.24309231 0.80200005 4285822320
0.18734767 0.24430475 0.80600005 4282598463
0.18933828 0.24491097 0.80800003 4282072376
0.1906278 0.24460785 0.80700004 4284638303
0.19096111 0.24309231 0.80200005 4288059539
0.19223551 0.24278921 0.80100006 4288256918
0.19447367 0.24369854 0.80400002 4284638303
0.19647938 0.24430475 0.80600005 4283783249
0.19849266 0.24491097 0.80800003 4284375386
0.19977085 0.24460785 0.80700004 4284046935
-0.1992559 0.24399361 0.80000001 4290822845
-0.19823962 0.24460357 0.80200005 4287664781
-0.19672523 0.24460357 0.80200005 4284835425
-0.19521083 0.24460357 0.80200005 4282401084
-0.19369644 0.24460357 0.80200005 4286546043
-0.19170278 0.24399361 0.80000001 4289967022
-0.19019215 0.24399361 0.80000001 4290230194
-0.18844569 0.24368861 0.79900002 4290361779
-0.18693696 0.24368861 0.79900002 4291546310
-0.18566029 0.24399361 0.80000001 4288651418
-0.18437986 0.24429859 0.80100006 4285624940
-0.18309563 0.24460357 0.80200005 4289901485
-0.18158123 0.24460357 0.80200005 4287401351
-0.17984232 0.24429859 0.80100006 4282861634
-0.17810717 0.24399361 0.80000001 4289572520
-0.17659655 0.24399361 0.80000001 4292138447
-0.17508592 0.24399361 0.80000001 4285624941
-0.17379227 0.24429859 0.80100006 4282006326
-0.17184961 0.24368861 0.79900002 4282006326
-0.16970129 0.24277364 0.79600006 4286809215
-0.16840951 0.24307862 0.79700005 4291677897
-0.16690455 0.24307862 0.79700005 4287533195
-0.16560712 0.24338362 0.79800004 4283980373
-0.16430593 0.24368861 0.79900002 4288388503
-0.16300094 0.24399361 0.80000001 4289638314
-0.16149032 0.24399361 0.80000001 4285361769
-0.16017967 0.24429859 0.80100006 4282927428
-0.15846907 0.24399361 0.80000001 4283651408
-0.15695845 0.24399361 0.80000001 4284638303
-0.15544783 0.24399361 0.80000001 4286151542
-0.15393719 0.24399361 0.80000001 4285954420
-0.15261711 0.24429859 0.80100006 4285494382
-0.1511046 0.24429859 0.80100006 4285362796
-0.14959209 0.24429859 0.80100006 4285165417
-0.14789471 0.24399361 0.80000001 4286415227
-0.1462011 0.24368861 0.79900002 4287336328
-0.14451128 0.24338362 0.79800004 4288849567
-0.14300443 0.24338362 0.79800004 4289244068
-0.14185221 0.24399361 0.80000001 4287599243
-0.14051703 0.24429859 0.80100006 4284704351
-0.13917804 0.24460357 0.80200005 4282138168
-0.13766365 0.24460357 0.80200005 4284703838
-0.13563997 0.24368861 0.79900002 4286875007
-0.13396335 0.24338362 0.79800004 4286940801
-0.13212454 0.24277364 0.79600006 4288783005
-0.13045736 0.24246864 0.79500002 4288717212
-0.12895618 0.24246864 0.79500002 4284638560
-0.12761533 0.24277364 0.79600006 4284441439
-0.12627068 0.24307862 0.79700005 4285165420
-0.12460919 0.24277364 0.79600006 4285165679
-0.12202352 0.2406387 0.78900003 4285757816
-0.1203809 0.24033369 0.78800005 4286349954
-0.11874206 0.24002871 0.78700006 4286284161
-0.11725599 0.24002871 0.78700006 4286284161
-0.11576991 0.24002871 0.78700006 4286349954
-0.11428383 0.24002871 0.78700006 4286547333
-0.11294108 0.24033369 0.78800005 4286284161
-0.11145312 0.24033369 0.78800005 4286415747
-0.1098256 0.24002871 0.78700006 4286547333
-0.10820187 0.23972371 0.78600001 4286612872
-0.10644613 0.23911372 0.78400004 4286481286
-0.10496572 0.23911372 0.78400004 4286415493
-0.10335331 0.23880874 0.78300005 4286481286
-0.10187479 0.23880874 0.78300005 4286481286
-0.10026805 0.23850374 0.78200006 4286678665
-0.09879142 0.23850374 0.78200006 4286416004
-0.097314782 0.23850374 0.78200006 4286416261
-0.095960706 0.23880874 0.78300005 4286350724
-0.094482183 0.23880874 0.78300005 4286350724
-0.092884883 0.23850374 0.78200006 4286548103
-0.091408245 0.23850374 0.78200006 4286745481
-0.089816615 0.23819876 0.78100002 4286679688
-0.088341869 0.23819876 0.78100002 4286811273
-0.086867116 0.23819876 0.78100002 4286876553
-0.085392371 0.23819876 0.78100002 4287402640
-0.083917625 0.23819876 0.78100002 4287402638
-0.08254844 0.23850374 0.78200006 4287205259
-0.081175476 0.23880874 0.78300005 4286547329
-0.079798736 0.23911372 0.78400004 4285560435
-0.078418225 0.23941873 0.78500003 4285100141
-0.077033937 0.23972371 0.78600001 4285297521
-0.075645864 0.24002871 0.78700006 4285166448
-0.074254021 0.24033369 0.78800005 4285166448
-0.072766058 0.24033369 0.78800005 4285298034
-0.071278095 0.24033369 0.78800005 4285297777
-0.069878697 0.2406387 0.78900003 4285297264
-0.068562195 0.24124868 0.79100001 4285165678
-0.067068569 0.24124868 0.79100001 4285099885
-0.065740742 0.24185865 0.79300004 4285165678
-0.064324349 0.24216366 0.79400003 4285165677
-0.062825054 0.24216366 0.79400003 4285165677
-0.061480239 0.24277364 0.79600006 4285033835
-0.060127866 0.24338362 0.79800004 4285230701
-0.058621019 0.24338362 0.79800004 4284967271
-0.057114173 0.24338362 0.79800004 4283914582
-0.055677008 0.24368861 0.79900002 4283256395
-0.054168273 0.24368861 0.79900002 4282335549
-0.052923165 0.24490859 0.80300003 4280756516
-0.051470894 0.24521357 0.80400002 4280690978
-0.049890589 0.24490859 0.80300003 4280690978
-0.04819357 0.24399361 0.80000001 4284111701
-0.046624597 0.24368861 0.79900002 4286611835
-0.045115862 0.24368861 0.79900002 4287664523
-0.043661702 0.24399361 0.80000001 4284703838
-0.042203769 0.24429859 0.80100006 4283848273
-0.040742058 0.24460357 0.80200005 4289308835
-0.039227657 0.24460357 0.80200005 4289177249
-0.037713259 0.24460357 0.80200005 4289111713
-0.036198858 0.24460357 0.80200005 4287006593
-0.034727708 0.24490859 0.80300003 4282927427
-0.033294138 0.24551857 0.80500007 4282203705
-0.031853013 0.24612854 0.80700004 4281808947
-0.030178843 0.24490859 0.80300003 4283782736
-0.028626861 0.24460357 0.80200005 4287203972
-0.027112462 0.24460357 0.80200005 4285690733
-0.025661897 0.24521357 0.80400002 4284111188
-0.02417375 0.24551857 0.80500007 4283979602
-0.022681827 0.24582355 0.80600005 4284900704
-0.021107368 0.24521357 0.80400002 4286808701
-0.019564826 0.24490859 0.80300003 4288585625
-0.018003587 0.24429859 0.80100006 4290033071
-0.016470486 0.24399361 0.80000001 4285493354
-0.014959863 0.24399361 0.80000001 4281151017
-0.013482863 0.24460357 0.80200005 4282598720
-0.01199831 0.24521357 0.80400002 4284111959
-0.010480133 0.24521357 0.80400002 4281546287
-0.0089619569 0.24521357 0.80400002 4283585357
-0.0074345218 0.24490859 0.80300003 4288125074
-0.0059182341 0.24490859 0.80300003 4285822320
-0.0043964642 0.24460357 0.80200005 4284374874
-0.0028820643 0.24460357 0.80200005 4284177495
-0.0013659592 0.24429859 0.80100006 4283980116
0.00014636929 0.24399361 0.80000001 4286019700
0.0016569925 0.24399361 0.80000001 4290756541
0.0031676157 0.24399361 0.80000001 4288848544
0.0046840869 0.24429859 0.80100006 4284374620
0.0062120706 0.24490859 0.80300003 4283980116
0.007737983 0.24521357 0.80400002 4286677629
0.009256159 0.24521357 0.80400002 4287993489
0.010774336 0.24521357 0.80400002 4286546300
0.012292512 0.24521357 0.80400002 4284769889
0.01379351 0.24490859 0.80300003 4285164390
0.015328865 0.24521357 0.80400002 4284901475
0.016826088 0.24490859 0.80300003 4284770144
0.018251006 0.24368861 0.79900002 4288322454
0.01973501 0.24338362 0.79800004 4291677386
0.021268476 0.24368861 0.79900002 4289572011
0.022834225 0.24429859 0.80100006 4284176983
0.024437923 0.24521357 0.80400002 4281676849
0.025988383 0.24551857 0.80500007 4283650384
0.027474275 0.24521357 0.80400002 4291611078
0.028956393 0.24490859 0.80300003 4289966766
0.030396782 0.24429859 0.80100006 4289374629
0.031949133 0.24460357 0.80200005 4291217089
0.03346353 0.24460357 0.80200005 4290296244
0.035021544 0.24490859 0.80300003 4285164136
0.036583334 0.24521357 0.80400002 4288124821
0.038101509 0.24521357 0.80400002 4289506474
0.039668966 0.24551857 0.80500007 4282730052
0.041137863 0.24521357 0.80400002 4286085495
0.042656038 0.24521357 0.80400002 4291020226
0.044174217 0.24521357 0.80400002 4284177754
0.045749225 0.24551857 0.80500007 4283124553
0.047210567 0.24521357 0.80400002 4283848276
0.048728745 0.24521357 0.80400002 4290888127
0.050184421 0.24490859 0.80300003 4291480007
0.051700711 0.24490859 0.80300003 4283058503
0.053216998 0.24490859 0.80300003 4283650383
0.054801449 0.24521357 0.80400002 4291873995
0.056319624 0.24521357 0.80400002 4290755514
0.057909742 0.24551857 0.80500007 4285032293
0.059429806 0.24551857 0.80500007 4282466623
0.060949869 0.24551857 0.80500007 4283387725
0.062469937 0.24551857 0.80500007 4284309340
0.063910507 0.24521357 0.80400002 4285625200
0.065428682 0.24521357 0.80400002 4289506987
0.066946857 0.24521357 0.80400002 4287598990
0.068465039 0.24521357 0.80400002 4285690993
0.069983214 0.24521357 0.80400002 4285033063
0.071412459 0.24490859 0.80300003 4285690993
0.072837919 0.24460357 0.80200005 4287598732
0.074352324 0.24460357 0.80200005 4290098866
0.075961322 0.24490859 0.80300003 4289769646
0.077574097 0.24521357 0.80400002 4288914337
0.079190649 0.24551857 0.80500007 4288453786
0.080911227 0.24612854 0.80700004 4283782483
0.082435071 0.24612854 0.80700004 4285493101
0.083750837 0.24551857 0.80500007 4289177509
0.085059047 0.24490859 0.80300003 4289045923
0.086467519 0.24460357 0.80200005 4289835439
0.087872222 0.24429859 0.80100006 4290691002
0.089161545 0.24368861 0.79900002 4287137926
0.090783767 0.24399361 0.80000001 4285032804
0.092525117 0.24460357 0.80200005 4284242775
0.094039522 0.24460357 0.80200005 4283650386
0.095911354 0.24551857 0.80500007 4288913826
0.097431421 0.24551857 0.80500007 4284769121
0.099197321 0.24612854 0.80700004 4282202938
0.10047155 0.24551857 0.80500007 4282400573
0.10161152 0.24460357 0.80200005 4283979605
0.10299734 0.24429859 0.80100006 4290427065
0.10437937 0.24399361 0.80000001 4289176998
0.10602236 0.24429859 0.80100006 4287203719
0.10766912 0.24460357 0.80200005 4285032550
0.1094558 0.24521357 0.80400002 4285098858
0.11125003 0.24582355 0.80600005 4285230444
0.11263207 0.24551857 0.80500007 4284440928
0.11401033 0.24521357 0.80400002 4285098856
0.11524112 0.24460357 0.80200005 4287335818
0.11675552 0.24460357 0.80200005 4287993746
0.11812245 0.24429859 0.80100006 4288585883
0.11963496 0.24429859 0.80100006 4288388247
0.12129872 0.24460357 0.80200005 4290625209
0.12281311 0.24460357 0.80200005 4288914591
0.12448253 0.24490859 0.80300003 4288125075
0.12599882 0.24490859 0.80300003 4283124808
0.12751511 0.24490859 0.80300003 4285493101
0.12919208 0.24521357 0.80400002 4287467404
0.13087285 0.24551857 0.80500007 4283125066
0.13239291 0.24551857 0.80500007 4281612597
0.13374661 0.24521357 0.80400002 4282861892
0.13492832 0.24460357 0.80200005 4283914581
0.13627258 0.24429859 0.80100006 4291611850
0.13761309 0.24399361 0.80000001 4291085506
0.1392976 0.24429859 0.80100006 4291809229
0.14098592 0.24460357 0.80200005 4282795588
0.14267799 0.24490859 0.80300003 4282269244
0.14455342 0.24551857 0.80500007 4284571999
0.14643641 0.24612854 0.80700004 4287137926
0.14796025 0.24612854 0.80700004 4288717214
0.14966932 0.24643354 0.80800003 4286151542
0.15119505 0.24643354 0.80800003 4284770144
0.15272078 0.24643354 0.80800003 4284375130
0.15424651 0.24643354 0.80800003 4285625198
0.15577224 0.24643354 0.80800003 4288585883
0.15749264 0.24673854 0.80900002 4284046421
0.15902026 0.24673854 0.80900002 4282730561
0.16015097 0.24612854 0.80700004 4287994002
0.16107379 0.24521357 0.80400002 4290230963
0.16218752 0.24460357 0.80200005 4290888893
0.16349779 0.24429859 0.80100006 4289244068
0.16521631 0.24460357 0.80200005 4287862415
0.1669386 0.24490859 0.80300003 4283454284
0.16887446 0.24551857 0.80500007 4282006582
0.17081787 0.24612854 0.80700004 4283124807
0.17191459 0.24551857 0.80500007 4288059283
0.1732192 0.24521357 0.80400002 4287795856
0.17473738 0.24521357 0.80400002 4291151299
0.17625555 0.24521357 0.80400002 4289835439
0.17755263 0.24490859 0.80300003 4283650897
0.17906891 0.24490859 0.80300003 4287795599
0.18013541 0.24429859 0.80100006 4290427319
0.18119438 0.24368861 0.79900002 4290756541
0.18270311 0.24368861 0.79900002 4289572522
0.18467295 0.24429859 0.80100006 4286019699
0.18711524 0.24551857 0.80500007 4283387979
0.18910396 0.24612854 0.80700004 4282269498
0.19039157 0.24582355 0.80600005 4285230183
0.19143732 0.24521357 0.80400002 4287335816
0.19247551 0.24460357 0.80200005 4289441192
0.19447367 0.24521357 0.80400002 4287006851
0.19647938 0.24582355 0.80600005 4284770402
0.19849266 0.24643354 0.80800003 4283915349
0.19977085 0.24612854 0.80700004 4283454798
-0.19900684 0.24519423 0.79900002 4290493880
-0.1974981 0.24519423 0.79900002 4286480507
-0.19598937 0.24519423 0.79900002 4284111959
-0.19448063 0.24519423 0.79900002 4282335548
-0.19273037 0.24488734 0.79800004 4287006851
-0.19098389 0.24458046 0.79700005 4290165170
-0.18947893 0.24458046 0.79700005 4289770155
-0.18773814 0.24427359 0.79600006 4290493622
-0.18646902 0.24458046 0.79700005 4292006861
-0.18519613 0.24488734 0.79800004 4288191124
-0.1836893 0.24488734 0.79800004 4286283126
-0.18241075 0.24519423 0.79900002 4291020222
-0.18090202 0.24519423 0.79900002 4286020211
-0.17894423 0.24458046 0.79700005 4283190855
-0.17721663 0.24427359 0.79600006 4290230707
-0.1759343 0.24458046 0.79700005 4290296243
-0.17442934 0.24458046 0.79700005 4283914323
-0.17314136 0.24488734 0.79800004 4281940533
-0.17120436 0.24427359 0.79600006 4283519565
-0.16927491 0.24365985 0.79400003 4290625209
-0.16777562 0.24365985 0.79400003 4291217346
-0.16627632 0.24365985 0.79400003 4286282871
-0.16498454 0.24396673 0.79500002 4287993488
-0.163689 0.24427359 0.79600006 4290691514
-0.16238968 0.24458046 0.79700005 4287796622
-0.16108659 0.24488734 0.79800004 4283716943
-0.15957974 0.24488734 0.79800004 4282796099
-0.15787481 0.24458046 0.79700005 4283585615
-0.15636985 0.24458046 0.79700005 4285690991
-0.15486489 0.24458046 0.79700005 4287270024
-0.15335993 0.24458046 0.79700005 4286283128
-0.15204552 0.24488734 0.79800004 4285756784
-0.15072732 0.24519423 0.79900002 4285230440
-0.14903182 0.24488734 0.79800004 4285362026
-0.1473401 0.24458046 0.79700005 4287467401
-0.14565216 0.24427359 0.79600006 4287730829
-0.14414909 0.24427359 0.79600006 4289046689
-0.14264603 0.24427359 0.79600006 4288454552
-0.14132026 0.24458046 0.79700005 4286612348
-0.14016616 0.24519423 0.79900002 4283454027
-0.13865744 0.24519423 0.79900002 4284177494
-0.13714869 0.24519423 0.79900002 4286940543
-0.13513067 0.24427359 0.79600006 4287203715
-0.13345973 0.24396673 0.79500002 4287532937
-0.13179256 0.24365985 0.79400003 4289177762
-0.13029328 0.24365985 0.79400003 4288322453
-0.12879398 0.24365985 0.79400003 4284440924
-0.127455 0.24396673 0.79500002 4283388494
-0.12611225 0.24427359 0.79600006 4284375903
-0.123983 0.24304609 0.79200006 4284968042
-0.12202352 0.24212547 0.78900003 4285626230
-0.1203809 0.24181858 0.78800005 4286349954
-0.11889294 0.24181858 0.78800005 4286218368
-0.11740497 0.24181858 0.78800005 4286283904
-0.11591701 0.24181858 0.78800005 4286349954
-0.11442904 0.24181858 0.78800005 4286349954
-0.11279776 0.2415117 0.78700006 4286284161
-0.11131168 0.2415117 0.78700006 4286284161
-0.1098256 0.2415117 0.78700006 4286415747
-0.10833953 0.2415117 0.78700006 4286481540
-0.10671768 0.24120483 0.78600001 4286415748
-0.10496572 0.24059108 0.78400004 4286415748
-0.10348531 0.24059108 0.78400004 4286416005
-0.1020049 0.24059108 0.78400004 4286415749
-0.10052449 0.24059108 0.78400004 4286481541
-0.098917745 0.2402842 0.78300005 4286481540
-0.097439222 0.2402842 0.78300005 4286415747
-0.095960706 0.2402842 0.78300005 4286349954
-0.094482183 0.2402842 0.78300005 4286350211
-0.09300366 0.2402842 0.78300005 4286547846
-0.091408245 0.23997733 0.78200006 4286744969
-0.089931615 0.23997733 0.78200006 4286679433
-0.088341869 0.23967046 0.78100002 4286876298
-0.086867116 0.23967046 0.78100002 4287007882
-0.085392371 0.23967046 0.78100002 4287402640
-0.084025078 0.23997733 0.78200006 4287336845
-0.08254844 0.23997733 0.78200006 4287205259
-0.081175476 0.2402842 0.78300005 4286416000
-0.079798736 0.24059108 0.78400004 4285495411
-0.078318328 0.24059108 0.78400004 4285034862
-0.077033937 0.24120483 0.78600001 4285100655
-0.075549752 0.24120483 0.78600001 4285034862
-0.074159794 0.2415117 0.78700006 4285166448
-0.072766058 0.24181858 0.78800005 4285231984
-0.071278095 0.24181858 0.78800005 4285231728
-0.069878697 0.24212547 0.78900003 4285297264
-0.068562195 0.24273922 0.79100001 4285099885
-0.067068569 0.24273922 0.79100001 4285165678
-0.065740742 0.24335296 0.79300004 4285231469
-0.064405359 0.24396673 0.79500002 4284902247
-0.062904179 0.24396673 0.79500002 4284704868
-0.061480239 0.24427359 0.79600006 4283388750
-0.060127866 0.24488734 0.79800004 4283059271
-0.058621019 0.24488734 0.79800004 4282598720
-0.057114173 0.24488734 0.79800004 4283453772
-0.055677008 0.24519423 0.79900002 4283322186
-0.054168273 0.24519423 0.79900002 4283124807
-0.05279135 0.24580798 0.80100006 4281743153
-0.051342856 0.24611485 0.80200005 4281085736
-0.049704194 0.2455011 0.80000001 4280954150
-0.048073091 0.24488734 0.79800004 4284901217
-0.046449535 0.24427359 0.79600006 4286809214
-0.044946466 0.24427359 0.79600006 4288125073
-0.043497972 0.24458046 0.79700005 4285756524
-0.042045705 0.24488734 0.79800004 4283650891
-0.040589657 0.24519423 0.79900002 4288190608
-0.039080922 0.24519423 0.79900002 4289506468
-0.037572186 0.24519423 0.79900002 4289572263
-0.036063451 0.24519423 0.79900002 4285953392
-0.034597963 0.2455011 0.80000001 4283321672
-0.033087339 0.2455011 0.80000001 4282071862
-0.031616189 0.24580798 0.80100006 4281743153
-0.030028513 0.24519423 0.79900002 4283651150
-0.028519778 0.24519423 0.79900002 4286940800
-0.027011042 0.24519423 0.79900002 4285230182
-0.025534226 0.2455011 0.80000001 4284111701
-0.024053631 0.24580798 0.80100006 4284243030
-0.022569261 0.24611485 0.80200005 4284769118
-0.021054862 0.24611485 0.80200005 4286480249
-0.019516097 0.24580798 0.80100006 4287335558
-0.017936155 0.24488734 0.79800004 4289967534
-0.016408723 0.24458046 0.79700005 4287007106
-0.014885064 0.24427359 0.79600006 4281677618
-0.013415617 0.24488734 0.79800004 4283190857
-0.01195354 0.24580798 0.80100006 4283585615
-0.010441029 0.24580798 0.80100006 4281217322
-0.0089285169 0.24580798 0.80100006 4282993476
-0.007406747 0.2455011 0.80000001 4288125587
-0.0058961236 0.2455011 0.80000001 4285756784
-0.0043855002 0.2455011 0.80000001 4284177752
-0.0028748771 0.2455011 0.80000001 4284045909
-0.0013625487 0.24519423 0.79900002 4283848787
0.00014600337 0.24488734 0.79800004 4284900964
0.0016528501 0.24488734 0.79800004 4290164404
0.0031596965 0.24488734 0.79800004 4289111716
0.0046723909 0.24519423 0.79900002 4284177241
0.006188862 0.2455011 0.80000001 4283453772
0.0077091097 0.24580798 0.80100006 4284901218
0.0092331339 0.24611485 0.80200005 4288059282
0.010734132 0.24580798 0.80100006 4286282871
0.012231356 0.2455011 0.80000001 4284572253
0.013741978 0.2455011 0.80000001 4284901218
0.015233536 0.24519423 0.79900002 4284638304
0.016700363 0.24458046 0.79700005 4284243801
0.01820532 0.24458046 0.79700005 4287993489
0.019685548 0.24427359 0.79600006 4291611850
0.021215238 0.24458046 0.79700005 4291480264
0.022748705 0.24488734 0.79800004 4285361513
0.024346735 0.24580798 0.80100006 4281940277
0.025923816 0.24642174 0.80300003 4283387468
0.027440105 0.24642174 0.80300003 4291282882
0.028884271 0.24580798 0.80100006 4290032816
0.030358834 0.2455011 0.80000001 4289309349
0.03186946 0.2455011 0.80000001 4290691002
0.033338357 0.24519423 0.79900002 4290691002
0.034890704 0.2455011 0.80000001 4285558893
0.036401328 0.2455011 0.80000001 4287927442
0.037959341 0.24580798 0.80100006 4291546057
0.039521132 0.24611485 0.80200005 4284177241
0.040882029 0.24519423 0.79900002 4284769378
0.042443823 0.2455011 0.80000001 4291019969
0.044009384 0.24580798 0.80100006 4284769891
0.045578729 0.24611485 0.80200005 4282467136
0.047093131 0.24611485 0.80200005 4281808949
0.048546921 0.24580798 0.80100006 4286479996
0.049996939 0.2455011 0.80000001 4291019713
0.051443174 0.24519423 0.79900002 4284045398
0.05295191 0.24519423 0.79900002 4282861124
0.054460645 0.24519423 0.79900002 4290887613
0.05596938 0.24519423 0.79900002 4290098354
0.057478115 0.24519423 0.79900002 4286282617
0.05898685 0.24519423 0.79900002 4283322189
0.060495585 0.24519423 0.79900002 4282335550
0.062081922 0.2455011 0.80000001 4283256652
0.063592546 0.2455011 0.80000001 4286414716
0.065103173 0.2455011 0.80000001 4289638573
0.066613793 0.2455011 0.80000001 4287467404
0.068124413 0.2455011 0.80000001 4285954165
0.069635041 0.2455011 0.80000001 4285098854
0.071234599 0.24580798 0.80100006 4285756784
0.072747111 0.24580798 0.80100006 4289440935
0.074259616 0.24580798 0.80100006 4290362037
0.075772129 0.24580798 0.80100006 4290822334
0.077381119 0.24611485 0.80200005 4290493369
0.078993894 0.24642174 0.80300003 4289506217
0.080510184 0.24642174 0.80300003 4284835171
0.082128622 0.24672861 0.80400002 4285164136
0.083438724 0.24611485 0.80200005 4288256407
0.084635347 0.24519423 0.79900002 4288453786
0.086036265 0.24488734 0.79800004 4289835439
0.087433405 0.24458046 0.79700005 4290098865
0.088826776 0.24427359 0.79600006 4288980130
0.0905568 0.24488734 0.79800004 4284638046
0.092294388 0.2455011 0.80000001 4283914323
0.093805008 0.2455011 0.80000001 4282137402
0.095434777 0.24580798 0.80100006 4288124821
0.097189352 0.24642174 0.80300003 4287796110
0.098828562 0.24672861 0.80400002 4282926916
0.10009712 0.24611485 0.80200005 4282664000
0.10135813 0.2455011 0.80000001 4282137401
0.10274016 0.24519423 0.79900002 4289374888
0.10411842 0.24488734 0.79800004 4289309095
0.10575763 0.24519423 0.79900002 4288256407
0.10740062 0.2455011 0.80000001 4286216824
0.10904738 0.24580798 0.80100006 4284638307
0.11069792 0.24611485 0.80200005 4285098858
0.11221232 0.24611485 0.80200005 4284901479
0.11358492 0.24580798 0.80100006 4285625200
0.11481004 0.24519423 0.79900002 4288191127
0.11617319 0.24488734 0.79800004 4288783262
0.11753257 0.24458046 0.79700005 4288849055
0.11933625 0.24519423 0.79900002 4288651419
0.12084498 0.24519423 0.79900002 4290164658
0.12235372 0.24519423 0.79900002 4289638314
0.12401748 0.2455011 0.80000001 4288454040
0.1255281 0.2455011 0.80000001 4285098597
0.12703872 0.2455011 0.80000001 4282927174
0.12871003 0.24580798 0.80100006 4287861906
0.13038512 0.24611485 0.80200005 4284177754
0.13173504 0.24580798 0.80100006 4281217069
0.13324755 0.24580798 0.80100006 4283256650
0.13442358 0.24519423 0.79900002 4285427819
0.1357622 0.24488734 0.79800004 4291546057
0.13726905 0.24488734 0.79800004 4291282885
0.13912371 0.2455011 0.80000001 4292467159
0.14063433 0.2455011 0.80000001 4286479996
0.14267799 0.24642174 0.80300003 4282532416
0.14455342 0.24703549 0.80500007 4284835171
0.14607349 0.24703549 0.80500007 4284900966
0.14777689 0.24734238 0.80600005 4288190615
0.14929885 0.24734238 0.80600005 4286480508
0.15082081 0.24734238 0.80600005 4284704096
0.15234275 0.24734238 0.80600005 4284111960
0.15405561 0.24764922 0.80700004 4285559407
0.15557945 0.24764922 0.80700004 4288783263
0.1571033 0.24764922 0.80700004 4286085492
0.1588237 0.24795611 0.80800003 4284374874
0.15975407 0.24703549 0.80500007 4288585626
0.16047277 0.24580798 0.80100006 4289111970
0.16158082 0.24519423 0.79900002 4290493622
0.16308956 0.24519423 0.79900002 4290098864
0.16480431 0.2455011 0.80000001 4288848797
0.16652282 0.24580798 0.80100006 4284375129
0.16845489 0.24642174 0.80300003 4281940790
0.17018284 0.24672861 0.80400002 4281940790
0.17148747 0.24642174 0.80300003 4284901219
0.17257287 0.24580798 0.80100006 4287993491
0.17408536 0.24580798 0.80100006 4290230710
0.17559788 0.24580798 0.80100006 4291085762
0.17688929 0.2455011 0.80000001 4285098342
0.17839991 0.2455011 0.80000001 4285163879
0.17946075 0.24488734 0.79800004 4290690491
0.18074083 0.24458046 0.79700005 4290756541
0.18247445 0.24488734 0.79800004 4291019713
0.1839813 0.24488734 0.79800004 4286479996
0.18618546 0.24580798 0.80100006 4282664002
0.18793231 0.24611485 0.80200005 4282532671
0.18991914 0.24672861 0.80400002 4283651408
0.19096111 0.24611485 0.80200005 4286283128
0.19223551 0.24580798 0.80100006 4288257175
0.19398992 0.24611485 0.80200005 4288191895
0.19550431 0.24611485 0.80200005 4285823347
0.19775568 0.24703549 0.80500007 4283849557
0.19902819 0.24672861 0.80400002 4284639073
-0.19900981 0.24484727 0.79300004 4291086017
-0.19801055 0.2454648 0.79500002 4289704364
-0.19650936 0.2454648 0.79500002 4285822832
-0.19500819 0.2454648 0.79500002 4283783250
-0.193507 0.2454648 0.79500002 4283388492
-0.19152279 0.24484727 0.79300004 4290296500
-0.19002537 0.24484727 0.79300004 4290165170
-0.18852797 0.24484727 0.79300004 4289507240
-0.18726642 0.24515603 0.79400003 4290691257
-0.18623506 0.24577355 0.79600006 4290033327
-0.18473199 0.24577355 0.79600006 4286151797
-0.18322892 0.24577355 0.79600006 4288651931
-0.18172584 0.24577355 0.79600006 4290757307
-0.17931713 0.24453852 0.79200006 4284704351
-0.17759709 0.24422975 0.79100001 4286480762
-0.1763261 0.24453852 0.79200006 4290362293
-0.17483057 0.24453852 0.79200006 4287730316
-0.17355393 0.24484727 0.79300004 4282927427
-0.17227349 0.24515603 0.79400003 4282203705
-0.17077421 0.24515603 0.79400003 4287927440
-0.16884851 0.24453852 0.79200006 4292467156
-0.16735299 0.24453852 0.79200006 4288256405
-0.16585748 0.24453852 0.79200006 4285756270
-0.16436195 0.24453852 0.79200006 4290624952
-0.16286644 0.24453852 0.79200006 4287993744
-0.16157468 0.24484727 0.79300004 4284177495
-0.16027914 0.24515603 0.79400003 4282730049
-0.15897982 0.2454648 0.79500002 4282795842
-0.15728056 0.24515603 0.79400003 4283322443
-0.15558507 0.24484727 0.79300004 4284769891
-0.15408765 0.24484727 0.79300004 4286414973
-0.15259025 0.24484727 0.79300004 4285362284
-0.15147391 0.2454648 0.79500002 4284770402
-0.14997272 0.2454648 0.79500002 4284244058
-0.14828479 0.24515603 0.79400003 4285691247
-0.1467855 0.24515603 0.79400003 4287665036
-0.14510322 0.24484727 0.79300004 4288388759
-0.14360581 0.24484727 0.79300004 4289244068
-0.14210841 0.24484727 0.79300004 4288520088
-0.14078833 0.24515603 0.79400003 4286546042
-0.13946445 0.2454648 0.79500002 4282466876
-0.13796327 0.2454648 0.79500002 4283980115
-0.13646209 0.2454648 0.79500002 4285624684
-0.13479115 0.24515603 0.79400003 4286742908
-0.13312398 0.24484727 0.79300004 4287664266
-0.13146058 0.24453852 0.79200006 4288980383
-0.12996507 0.24453852 0.79200006 4288980639
-0.12846956 0.24453852 0.79200006 4284901473
-0.12713435 0.24484727 0.79300004 4282138168
-0.12579539 0.24515603 0.79400003 4282270270
-0.12382647 0.24422975 0.79100001 4284507490
-0.12186886 0.24330346 0.78800005 4285757560
-0.1203809 0.24330346 0.78800005 4286349698
-0.11889294 0.24330346 0.78800005 4286283905
-0.11740497 0.24330346 0.78800005 4286152318
-0.11591701 0.24330346 0.78800005 4286415491
-0.11428383 0.24299471 0.78700006 4286547077
-0.11265443 0.24268596 0.78600001 4286349698
-0.11117025 0.24268596 0.78600001 4286349698
-0.10968605 0.24268596 0.78600001 4286481284
-0.10820187 0.24268596 0.78600001 4286415747
-0.10671768 0.24268596 0.78600001 4286481540
-0.1050996 0.24237719 0.78500003 4286415747
-0.10348531 0.24206842 0.78400004 4286416260
-0.1020049 0.24206842 0.78400004 4286482310
-0.10052449 0.24206842 0.78400004 4286547589
-0.099044077 0.24206842 0.78400004 4286416004
-0.097439222 0.24175966 0.78300005 4286416003
-0.095960706 0.24175966 0.78300005 4286416004
-0.094482183 0.24175966 0.78300005 4286613383
-0.092884883 0.24145091 0.78200006 4286744712
-0.091291361 0.24114215 0.78100002 4286744712
-0.089816615 0.24114215 0.78100002 4286810505
-0.088341869 0.24114215 0.78100002 4286876297
-0.086867116 0.24114215 0.78100002 4286876296
-0.085392371 0.24114215 0.78100002 4287336847
-0.083917625 0.24114215 0.78100002 4287336846
-0.08244288 0.24114215 0.78100002 4287205260
-0.081071809 0.24145091 0.78200006 4286350208
-0.079696953 0.24175966 0.78300005 4285363826
-0.078318328 0.24206842 0.78400004 4285100655
-0.077033937 0.24268596 0.78600001 4284969069
-0.075549752 0.24268596 0.78600001 4285100399
-0.074159794 0.24299471 0.78700006 4285231985
-0.072673716 0.24299471 0.78700006 4285231727
-0.071187638 0.24299471 0.78700006 4285099885
-0.069878697 0.24361224 0.78900003 4285230957
-0.068475515 0.243921 0.79000002 4285231214
-0.067068569 0.24422975 0.79100001 4284836711
-0.065740742 0.24484727 0.79300004 4284375903
-0.064324349 0.24515603 0.79400003 4283060041
-0.062825054 0.24515603 0.79400003 4281020200
-0.061403003 0.2454648 0.79500002 4281085736
-0.059977166 0.24577355 0.79600006 4283125062
-0.058474097 0.24577355 0.79600006 4284177751
-0.056971028 0.24577355 0.79600006 4287137923
-0.055537637 0.24608232 0.79700005 4286019442
-0.05403268 0.24608232 0.79700005 4283519308
-0.052659538 0.24669984 0.79900002 4281742897
-0.051150803 0.24669984 0.79900002 4281677616
-0.049517807 0.24608232 0.79700005 4283256649
-0.04783212 0.24515603 0.79400003 4287401351
-0.046274476 0.24484727 0.79300004 4287993488
-0.044777069 0.24484727 0.79300004 4289243555
-0.043334242 0.24515603 0.79400003 4288717208
-0.041834947 0.24515603 0.79400003 4283585097
-0.040386457 0.2454648 0.79500002 4286085232
-0.03883636 0.24515603 0.79400003 4289243039
-0.037337068 0.24515603 0.79400003 4288781975
-0.035837773 0.24515603 0.79400003 4286018928
-0.034338478 0.24515603 0.79400003 4282795328
-0.032921907 0.24577355 0.79600006 4281282089
-0.031418834 0.24577355 0.79600006 4282729535
-0.029878182 0.2454648 0.79500002 4283914322
-0.028377 0.2454648 0.79500002 4286743421
-0.026875818 0.2454648 0.79500002 4285822319
-0.025374636 0.2454648 0.79500002 4284572252
-0.023903485 0.24577355 0.79600006 4284309080
-0.022456696 0.24639107 0.79800004 4284374617
-0.020976102 0.24669984 0.79900002 4286940800
-0.01941864 0.24608232 0.79700005 4287664779
-0.017823776 0.24484727 0.79300004 4290033584
-0.016305782 0.24453852 0.79200006 4286940801
-0.014828964 0.24484727 0.79300004 4281282860
-0.013381993 0.24577355 0.79600006 4284046166
-0.011893846 0.24608232 0.79700005 4284506717
-0.010388888 0.24608232 0.79700005 4281743410
-0.0088839298 0.24608232 0.79700005 4282730305
-0.0073789717 0.24608232 0.79700005 4288191125
-0.0058740135 0.24608232 0.79700005 4285756784
-0.0043745367 0.24639107 0.79800004 4284441180
-0.0028676901 0.24639107 0.79800004 4284111958
-0.0013591379 0.24608232 0.79700005 4284243288
0.00014563744 0.24577355 0.79600006 4283914326
0.0016466363 0.2454648 0.79500002 4287861650
0.0031438586 0.24515603 0.79400003 4289703853
0.0046490002 0.2454648 0.79500002 4284900964
0.0061579174 0.24577355 0.79600006 4282993221
0.0076802364 0.24639107 0.79800004 4282861636
0.0091985967 0.24669984 0.79900002 4288124820
0.01069393 0.24639107 0.79800004 4287598476
0.012170198 0.24577355 0.79600006 4284571998
0.013673268 0.24577355 0.79600006 4284638303
0.015176338 0.24577355 0.79600006 4284506718
0.016658455 0.2454648 0.79500002 4284901475
0.018136796 0.24515603 0.79400003 4286217591
0.019636089 0.24515603 0.79400003 4290624954
0.021162 0.2454648 0.79500002 4291019969
0.022691689 0.24577355 0.79600006 4285690734
0.024285946 0.24669984 0.79900002 4282401084
0.025891531 0.24762611 0.80200005 4282532413
0.027371759 0.24731737 0.80100006 4289440935
0.028812151 0.24669984 0.79900002 4289835693
0.030282937 0.24639107 0.79800004 4289440935
0.031789783 0.24639107 0.79800004 4290098865
0.033254907 0.24608232 0.79700005 4289638314
0.034759864 0.24608232 0.79700005 4285295976
0.036264822 0.24608232 0.79700005 4287861648
0.03776978 0.24608232 0.79700005 4292006607
0.039225459 0.24577355 0.79600006 4285229927
0.040728532 0.24577355 0.79600006 4285361515
0.042231601 0.24577355 0.79600006 4290888127
0.043789614 0.24608232 0.79700005 4284967270
0.045408234 0.24669984 0.79900002 4282796102
0.046975691 0.24700861 0.80000001 4282006585
0.048425704 0.24669984 0.79900002 4285624944
0.049809448 0.24608232 0.79700005 4291677900
0.051250022 0.24577355 0.79600006 4285361513
0.052686818 0.2454648 0.79500002 4281742898
0.054187998 0.2454648 0.79500002 4287269510
0.055689182 0.2454648 0.79500002 4290953920
0.057118427 0.24515603 0.79400003 4286414203
0.058617722 0.24515603 0.79400003 4283190602
0.060268443 0.24577355 0.79600006 4282401343
0.061849117 0.24608232 0.79700005 4283783766
0.063274585 0.24577355 0.79600006 4286151546
0.064777657 0.24577355 0.79600006 4288454299
0.066280723 0.24577355 0.79600006 4288059541
0.067783795 0.24577355 0.79600006 4285954164
0.069373906 0.24608232 0.79700005 4284967525
0.071056731 0.24669984 0.79900002 4286217335
0.072565466 0.24669984 0.79900002 4289506985
0.074074201 0.24669984 0.79900002 4290428087
0.075582936 0.24669984 0.79900002 4291611850
0.077091672 0.24669984 0.79900002 4291151042
0.078698777 0.24700861 0.80000001 4289900975
0.080209404 0.24700861 0.80000001 4284440156
0.081822179 0.24731737 0.80100006 4284308570
0.083126612 0.24669984 0.79900002 4287993235
0.08421164 0.2454648 0.79500002 4287203719
0.08571282 0.2454648 0.79500002 4289506474
0.087104298 0.24515603 0.79400003 4290296246
0.088603593 0.24515603 0.79400003 4291151299
0.090329848 0.24577355 0.79600006 4287335816
0.09206365 0.24639107 0.79800004 4284309081
0.093453236 0.24608232 0.79700005 4282072120
0.095077343 0.24639107 0.79800004 4287993490
0.096826255 0.24700861 0.80000001 4289111970
0.098336883 0.24700861 0.80000001 4283716944
0.099722691 0.24669984 0.79900002 4282598463
0.10123143 0.24669984 0.79900002 4285493355
0.10261158 0.24639107 0.79800004 4291546055
0.10398795 0.24608232 0.79700005 4291019713
0.1054929 0.24608232 0.79700005 4288980130
0.10713211 0.24639107 0.79800004 4286282617
0.10863896 0.24639107 0.79800004 4284572512
0.11028384 0.24669984 0.79900002 4284375133
0.11179257 0.24669984 0.79900002 4284638305
0.1130177 0.24608232 0.79700005 4285296235
0.11452266 0.24608232 0.79700005 4285296235
0.11573645 0.2454648 0.79500002 4288783263
0.11723764 0.2454648 0.79500002 4288914850
0.11888818 0.24577355 0.79600006 4289506473
0.12039125 0.24577355 0.79600006 4289967025
0.12189432 0.24577355 0.79600006 4289440935
0.1235524 0.24608232 0.79700005 4288717212
0.12490045 0.24577355 0.79600006 4286480250
0.12640353 0.24577355 0.79600006 4283124551
0.12822796 0.24639107 0.79800004 4288454298
0.12973481 0.24639107 0.79800004 4285625200
0.1310772 0.24608232 0.79700005 4282335549
0.13258216 0.24608232 0.79700005 4282467134
0.13408712 0.24608232 0.79700005 4284901731
0.13542195 0.24577355 0.79600006 4289638571
0.13692501 0.24577355 0.79600006 4291546568
0.138602 0.24608232 0.79700005 4291743947
0.14028274 0.24639107 0.79800004 4287796367
0.14214495 0.24700861 0.80000001 4282335549
0.14401472 0.24762611 0.80200005 4284046168
0.14552912 0.24762611 0.80200005 4284835171
0.14704353 0.24762611 0.80200005 4288059285
0.14874315 0.24793489 0.80300003 4286743938
0.15025944 0.24793489 0.80300003 4284704868
0.15196472 0.24824363 0.80400002 4284046681
0.15386471 0.24886118 0.80600005 4284769890
0.15519388 0.24855241 0.80500007 4287204230
0.15651926 0.24824363 0.80400002 4286414714
0.15803744 0.24824363 0.80400002 4282993221
0.15915872 0.24762611 0.80200005 4282401084
0.15987174 0.24639107 0.79800004 4285164390
0.16117637 0.24608232 0.79700005 4290493622
0.16268133 0.24608232 0.79700005 4290822587
0.16418628 0.24608232 0.79700005 4288848798
0.16589914 0.24639107 0.79800004 4286217335
0.16782555 0.24700861 0.80000001 4282467134
0.16954784 0.24731737 0.80100006 4281677618
0.17106035 0.24731737 0.80100006 4281940790
0.17235743 0.24700861 0.80000001 4287862160
0.1736507 0.24669984 0.79900002 4289046434
0.174721 0.24608232 0.79700005 4290822845
0.17600484 0.24577355 0.79600006 4286743679
0.17750791 0.24577355 0.79600006 4284111702
0.1787861 0.2454648 0.79500002 4290361782
0.18028727 0.2454648 0.79500002 4291019712
0.18201712 0.24577355 0.79600006 4291414471
0.1839813 0.24639107 0.79800004 4288848544
0.18548815 0.24639107 0.79800004 4283848276
0.18746366 0.24700861 0.80000001 4282466623
0.18921049 0.24731737 0.80100006 4283190602
0.190723 0.24731737 0.80100006 4285362027
0.19175552 0.24669984 0.79900002 4284836195
0.19302237 0.24639107 0.79800004 4288323481
0.19452922 0.24639107 0.79800004 4287073414
0.19628172 0.24669984 0.79900002 4282928455
0.19803801 0.24700861 0.80000001 4283849557
0.19954863 0.24700861 0.80000001 4285560175
-0.19875886 0.24603094 0.79200006 4291480775
-0.1975124 0.24634157 0.79300004 4287072644
-0.1962622 0.24665223 0.79400003 4283585615
-0.1947629 0.24665223 0.79400003 4282796354
-0.19302019 0.24634157 0.79300004 4286941313
-0.19152279 0.24634157 0.79300004 4291415237
-0.18978575 0.24603094 0.79200006 4290033584
-0.18829022 0.24603094 0.79200006 4289704619
-0.18726642 0.24665223 0.79400003 4290362549
-0.18600109 0.24696288 0.79500002 4287533450
-0.18473199 0.24727353 0.79600006 4285691246
-0.18322892 0.24727353 0.79600006 4289112482
-0.18149754 0.24696288 0.79500002 4290033584
-0.17931713 0.24603094 0.79200006 4284901730
-0.17737257 0.24540965 0.79000002 4289441447
-0.17588083 0.24540965 0.79000002 4289901742
-0.17483057 0.24603094 0.79200006 4285164389
-0.17355393 0.24634157 0.79300004 4282072118
-0.17227349 0.24665223 0.79400003 4283387722
-0.17077421 0.24665223 0.79400003 4291480004
-0.16906171 0.24634157 0.79300004 4291940555
-0.16735299 0.24603094 0.79200006 4286677115
-0.16585748 0.24603094 0.79200006 4285427048
-0.16436195 0.24603094 0.79200006 4291151296
-0.16286644 0.24603094 0.79200006 4287467144
-0.16137092 0.24603094 0.79200006 4283914322
-0.16027914 0.24665223 0.79400003 4282664256
-0.15897982 0.24696288 0.79500002 4283716944
-0.15728056 0.24665223 0.79400003 4284375132
-0.15558507 0.24634157 0.79300004 4284967270
-0.15408765 0.24634157 0.79300004 4286546302
-0.15259025 0.24634157 0.79300004 4285033319
-0.15109284 0.24634157 0.79300004 4284375388
-0.14978409 0.24665223 0.79400003 4284178008
-0.14809804 0.24634157 0.79300004 4287007363
-0.14660063 0.24634157 0.79300004 4288059794
-0.14492024 0.24603094 0.79200006 4289375654
-0.14342472 0.24603094 0.79200006 4289770155
-0.14192921 0.24603094 0.79200006 4288059281
-0.14061101 0.24634157 0.79300004 4286546042
-0.13946445 0.24696288 0.79500002 4282861634
-0.13796327 0.24696288 0.79500002 4284177237
-0.13646209 0.24696288 0.79500002 4286940287
-0.13462138 0.24634157 0.79300004 4287203459
-0.1329561 0.24603094 0.79200006 4288059025
-0.13129461 0.2457203 0.79100001 4289769899
-0.12980098 0.2457203 0.79100001 4289901485
-0.12830736 0.2457203 0.79100001 4285099109
-0.12697403 0.24603094 0.79200006 4282006839
-0.12579539 0.24665223 0.79400003 4282270269
-0.123983 0.24603094 0.79200006 4284836199
-0.12217817 0.24540965 0.79000002 4285625717
-0.12053367 0.24509901 0.78900003 4286020476
-0.11904381 0.24509901 0.78900003 4285954683
-0.11755396 0.24509901 0.78900003 4286152061
-0.11606411 0.24509901 0.78900003 4286283647
-0.11442904 0.24478835 0.78800005 4286612612
-0.11279776 0.2444777 0.78700006 4286415233
-0.11131168 0.2444777 0.78700006 4286283647
-0.1098256 0.2444777 0.78700006 4286415233
-0.10833953 0.2444777 0.78700006 4286349440
-0.10685346 0.2444777 0.78700006 4286481283
-0.1052335 0.24416707 0.78600001 4286481539
-0.10374931 0.24416707 0.78600001 4286481797
-0.10213501 0.24385643 0.78500003 4286547590
-0.10065271 0.24385643 0.78500003 4286547333
-0.099170409 0.24385643 0.78500003 4286415747
-0.097688109 0.24385643 0.78500003 4286219138
-0.096083254 0.24354577 0.78400004 4286350724
-0.094602846 0.24354577 0.78400004 4286547590
-0.09300366 0.24323513 0.78300005 4286744712
-0.091408245 0.24292448 0.78200006 4286810505
-0.089931615 0.24292448 0.78200006 4286744712
-0.088341869 0.24261385 0.78100002 4286810505
-0.086978346 0.24292448 0.78200006 4286942089
-0.085392371 0.24261385 0.78100002 4287271054
-0.084025078 0.24292448 0.78200006 4287402640
-0.08254844 0.24292448 0.78200006 4287139468
-0.081071809 0.24292448 0.78200006 4286547331
-0.079798736 0.24354577 0.78400004 4285560693
-0.078418225 0.24385643 0.78500003 4285231728
-0.077131942 0.2444777 0.78700006 4285231728
-0.075645864 0.2444777 0.78700006 4285428850
-0.074254021 0.24478835 0.78800005 4285231471
-0.072766058 0.24478835 0.78800005 4285428850
-0.071278095 0.24478835 0.78800005 4285296750
-0.069878697 0.24509901 0.78900003 4284968040
-0.068475515 0.24540965 0.79000002 4284046681
-0.067068569 0.2457203 0.79100001 4282467650
-0.065740742 0.24634157 0.79300004 4282467648
-0.064324349 0.24665223 0.79400003 4282730306
-0.062825054 0.24665223 0.79400003 4280690978
-0.061403003 0.24696288 0.79500002 4281546287
-0.059901819 0.24696288 0.79500002 4284901217
-0.058400638 0.24696288 0.79500002 4287335558
-0.056899458 0.24696288 0.79500002 4288322196
-0.055537637 0.24758416 0.79700005 4287269508
-0.05403268 0.24758416 0.79700005 4283979858
-0.05259363 0.24789482 0.79800004 4281808946
-0.051086783 0.24789482 0.79800004 4282006325
-0.049455676 0.24727353 0.79600006 4283914322
-0.047771882 0.24634157 0.79300004 4287269765
-0.046216119 0.24603094 0.79200006 4288059281
-0.044720601 0.24603094 0.79200006 4289375139
-0.043279666 0.24634157 0.79300004 4288651670
-0.04178226 0.24634157 0.79300004 4283716682
-0.040335655 0.24665223 0.79400003 4286414195
-0.038787451 0.24634157 0.79300004 4288980124
-0.037290044 0.24634157 0.79300004 4288716698
-0.035792638 0.24634157 0.79300004 4288058768
-0.034338478 0.24665223 0.79400003 4283321672
-0.032880548 0.24696288 0.79500002 4282071862
-0.031418834 0.24727353 0.79600006 4283255879
-0.029878182 0.24696288 0.79500002 4283585358
-0.028341305 0.24665223 0.79400003 4286611836
-0.026842011 0.24665223 0.79400003 4286020211
-0.025342718 0.24665223 0.79400003 4284638558
-0.023873454 0.24696288 0.79500002 4284046165
-0.022428555 0.24758416 0.79700005 4284638045
-0.02094985 0.24789482 0.79800004 4286743421
-0.01941864 0.24758416 0.79700005 4287467144
-0.017823776 0.24634157 0.79300004 4289967278
-0.016305782 0.24603094 0.79200006 4288980383
-0.014828964 0.24634157 0.79300004 4281941045
-0.013365182 0.24696288 0.79500002 4284111959
-0.011864 0.24696288 0.79500002 4283980116
-0.010375854 0.24727353 0.79600006 4282072119
-0.0088727837 0.24727353 0.79600006 4284835425
-0.0073789717 0.24758416 0.79700005 4288388504
-0.0058740135 0.24758416 0.79700005 4285822577
-0.0043690549 0.24758416 0.79700005 4284638302
-0.0028640963 0.24758416 0.79700005 4283651663
-0.0013591379 0.24758416 0.79700005 4283782993
0.00014563744 0.24727353 0.79600006 4284572510
0.0016466363 0.24696288 0.79500002 4288190870
0.0031438586 0.24665223 0.79400003 4290296246
0.0046431525 0.24665223 0.79400003 4285361769
0.0061501819 0.24696288 0.79500002 4282598463
0.0076609878 0.24727353 0.79600006 4283124807
0.0091870837 0.24789482 0.79800004 4288124821
0.010680529 0.24758416 0.79700005 4288387993
0.012154909 0.24696288 0.79500002 4285164136
0.013656091 0.24696288 0.79500002 4284638047
0.015157273 0.24696288 0.79500002 4284769889
0.0166375 0.24665223 0.79400003 4284901475
0.018136796 0.24665223 0.79400003 4285033061
0.019636089 0.24665223 0.79400003 4290691259
0.021162 0.24696288 0.79500002 4290493880
0.022691689 0.24727353 0.79600006 4286019956
0.024285946 0.24820544 0.79900002 4282927685
0.025859248 0.24882676 0.80100006 4283322186
0.027337587 0.2485161 0.80000001 4290296244
0.028776091 0.24789482 0.79800004 4289835693
0.030244987 0.24758416 0.79700005 4289375142
0.031749949 0.24758416 0.79700005 4290033071
0.033254907 0.24758416 0.79700005 4291019966
0.034716249 0.24727353 0.79600006 4286809214
0.036219321 0.24727353 0.79600006 4287006594
0.03776978 0.24758416 0.79700005 4291612105
0.039225459 0.24727353 0.79600006 4284966757
0.040728532 0.24727353 0.79600006 4285887859
0.042231601 0.24727353 0.79600006 4290427576
0.043789614 0.24758416 0.79700005 4286151546
0.045351401 0.24789482 0.79800004 4282401345
0.046975691 0.2485161 0.80000001 4282006585
0.048425704 0.24820544 0.79900002 4288454299
0.049809448 0.24758416 0.79700005 4291875535
0.051250022 0.24727353 0.79600006 4287796110
0.052686818 0.24696288 0.79500002 4281874740
0.05411984 0.24665223 0.79400003 4286019699
0.055619132 0.24665223 0.79400003 4291217092
0.057118427 0.24665223 0.79400003 4286348410
0.058617722 0.24665223 0.79400003 4284440413
0.060268443 0.24727353 0.79600006 4283388238
0.061849117 0.24758416 0.79700005 4283585617
0.063274585 0.24727353 0.79600006 4284440928
0.064777657 0.24727353 0.79600006 4287335818
0.066280723 0.24727353 0.79600006 4287204232
0.067783795 0.24727353 0.79600006 4285230440
0.069373906 0.24758416 0.79700005 4285230440
0.070967793 0.24789482 0.79800004 4284769889
0.072474644 0.24789482 0.79800004 4288651676
0.073981486 0.24789482 0.79800004 4290822845
0.075488336 0.24789482 0.79800004 4291151810
0.076995179 0.24789482 0.79800004 4290954175
0.078600407 0.24820544 0.79900002 4289703853
0.080109142 0.24820544 0.79900002 4285098086
0.081720024 0.2485161 0.80000001 4284637535
0.083126612 0.24820544 0.79900002 4287335048
0.08421164 0.24696288 0.79500002 4286743168
0.085605003 0.24665223 0.79400003 4289309095
0.087104298 0.24665223 0.79400003 4290756541
0.088603593 0.24665223 0.79400003 4290493369
0.090329848 0.24727353 0.79600006 4286414714
0.091948278 0.24758416 0.79700005 4284638303
0.093453236 0.24758416 0.79700005 4282006583
0.094958194 0.24758416 0.79700005 4287335559
0.096584186 0.24789482 0.79800004 4288914848
0.098213956 0.24820544 0.79900002 4283125064
0.099722691 0.24820544 0.79900002 4281809204
0.10123143 0.24820544 0.79900002 4283453772
0.10274016 0.24820544 0.79900002 4285295976
0.10411842 0.24789482 0.79800004 4290822334
0.10562527 0.24789482 0.79800004 4289572267
0.10713211 0.24789482 0.79800004 4286414203
0.10863896 0.24789482 0.79800004 4285033063
0.11028384 0.24820544 0.79900002 4284506719
0.11179257 0.24820544 0.79900002 4284769891
0.1130177 0.24758416 0.79700005 4284901477
0.11437897 0.24727353 0.79600006 4284572512
0.11573645 0.24696288 0.79500002 4288980643
0.11709017 0.24665223 0.79400003 4289374888
0.11888818 0.24727353 0.79600006 4290098865
0.12039125 0.24727353 0.79600006 4289769900
0.12174118 0.24696288 0.79500002 4290032559
0.12324236 0.24696288 0.79500002 4289440935
0.12474355 0.24696288 0.79500002 4288059282
0.12640353 0.24727353 0.79600006 4283388236
0.12806728 0.24758416 0.79700005 4284835682
0.12973481 0.24789482 0.79800004 4285625200
0.1310772 0.24758416 0.79700005 4283717203
0.13258216 0.24758416 0.79700005 4281809204
0.13408712 0.24758416 0.79700005 4284111959
0.13542195 0.24727353 0.79600006 4288849055
0.13692501 0.24727353 0.79600006 4291414982
0.13842808 0.24727353 0.79600006 4290559673
0.13993116 0.24727353 0.79600006 4290296501
