# .PCD v0.7 - Point Cloud Data file format
VERSION 0.7
FIELDS x y z rgba
SIZE 4 4 4 4
TYPE F F F U
COUNT 1 1 1 1
WIDTH 1068
HEIGHT 1
VIEWPOINT 0 0 0 1 0 0 0
POINTS 1068
DATA ascii
0.13494268 0.26192039 0.73600006 4287467146
0.13633245 0.26192039 0.73600006 4290888383
0.13772222 0.26192039 0.73600006 4285230442
0.13930102 0.26227626 0.73700005 4283388752
0.14031087 0.26156449 0.73500001 4282599492
0.14189154 0.26192039 0.73600006 4283257420
0.14328131 0.26192039 0.73600006 4285625968
0.14467108 0.26192039 0.73600006 4289771439
0.14586242 0.26156449 0.73500001 4288126614
0.14745064 0.26192039 0.73600006 4284968550
0.14884041 0.26192039 0.73600006 4283981655
0.15063842 0.26263213 0.73800004 4285428844
0.15223797 0.262988 0.73900002 4286481276
0.15321763 0.26227626 0.73700005 4288849824
0.1543995 0.26192039 0.73600006 4289375654
0.15557761 0.26156449 0.73500001 4290428086
0.15696549 0.26156449 0.73500001 4290296244
0.15856881 0.26192039 0.73600006 4289901486
0.16039327 0.26263213 0.73800004 4283125064
0.16200604 0.262988 0.73900002 4281546032
0.16340147 0.262988 0.73900002 4287270793
0.16457392 0.26263213 0.73800004 4288389274
0.16574259 0.26227626 0.73700005 4288652446
0.16713424 0.26227626 0.73700005 4288915618
0.1678399 0.26120865 0.73400003 4289901745
0.1692259 0.26120865 0.73400003 4285888372
0.1706119 0.26120865 0.73400003 4283914580
0.17199789 0.26120865 0.73400003 4283454029
0.17362012 0.26156449 0.73500001 4282467134
0.1752461 0.26192039 0.73600006 4286612863
0.17663588 0.26192039 0.73600006 4286612862
0.17802565 0.26192039 0.73600006 4282073145
0.17990297 0.26263213 0.73800004 4281283629
0.18178783 0.26334384 0.74000001 4281744180
0.18318516 0.26334384 0.74000001 4285033830
0.18433304 0.262988 0.73900002 4290494649
0.18572849 0.262988 0.73900002 4287468171
0.18661751 0.26227626 0.73700005 4285560174
0.18749897 0.26156449 0.73500001 4285033830
0.18914384 0.26192039 0.73600006 4284112728
0.19053361 0.26192039 0.73600006 4284968038
0.19218415 0.26227626 0.73700005 4284573280
0.19331315 0.26192039 0.73600006 4284573280
0.1944384 0.26156449 0.73500001 4286876035
0.19609271 0.26192039 0.73600006 4288915618
0.19775081 0.26227626 0.73700005 4288717469
0.19914247 0.26227626 0.73700005 4289178275
-0.19946717 0.26080301 0.72900003 4286283385
-0.19890578 0.26187629 0.73200005 4281546802
-0.19752356 0.26187629 0.73200005 4282665283
-0.19560544 0.26116076 0.73000002 4284507487
-0.1934288 0.26008752 0.72700006 4288586655
-0.19179185 0.25972974 0.72600001 4289441964
-0.19042096 0.25972974 0.72600001 4284639074
-0.18905006 0.25972974 0.72600001 4284112729
-0.18793768 0.26008752 0.72700006 4284244315
-0.18630829 0.25972974 0.72600001 4283191627
-0.1849374 0.25972974 0.72600001 4283389006
-0.18356651 0.25972974 0.72600001 4283915350
-0.18219562 0.25972974 0.72600001 4286547070
-0.18082473 0.25972974 0.72600001 4284573536
-0.1799482 0.26044524 0.72800004 4282468161
-0.17881882 0.26080301 0.72900003 4284441695
-0.17719886 0.26044524 0.72800004 4284441696
-0.17558268 0.26008752 0.72700006 4281744183
-0.17373064 0.25937197 0.72500002 4281940792
-0.17259939 0.25972974 0.72600001 4290559675
-0.17099264 0.25937197 0.72500002 4288520092
-0.16985761 0.25972974 0.72600001 4287927955
-0.16848671 0.25972974 0.72600001 4285362541
-0.16711582 0.25972974 0.72600001 4284310366
-0.16574493 0.25972974 0.72600001 4283586898
-0.16460045 0.26008752 0.72700006 4284376414
-0.16322766 0.26008752 0.72700006 4285034344
-0.16163225 0.25972974 0.72600001 4287468685
-0.16026136 0.25972974 0.72600001 4284639075
-0.15932819 0.26044524 0.72800004 4283717973
-0.15838745 0.26116076 0.73000002 4281414963
-0.15743917 0.26187629 0.73200005 4282006587
-0.15584376 0.26151851 0.73100001 4283651412
-0.15425213 0.26116076 0.73000002 4284835686
-0.15245485 0.26044524 0.72800004 4290099126
-0.15066513 0.25972974 0.72600001 4290296249
-0.14929424 0.25972974 0.72600001 4291019715
-0.14792335 0.25972974 0.72600001 4287466892
-0.14675432 0.26008752 0.72700006 4284637792
-0.14558151 0.26044524 0.72800004 4288914337
-0.14420685 0.26044524 0.72800004 4288453786
-0.14302839 0.26080301 0.72900003 4287730320
-0.14184614 0.26116076 0.73000002 4286217082
-0.14085253 0.26187629 0.73200005 4281743158
-0.13985139 0.26259178 0.73400003 4281809208
-0.13865402 0.26294953 0.73500001 4282335551
-0.13614561 0.26080301 0.72900003 4285427821
-0.13458419 0.26044524 0.72800004 4288059541
-0.13302653 0.26008752 0.72700006 4291414984
-0.13165376 0.26008752 0.72700006 4289901745
-0.13028097 0.26008752 0.72700006 4288717471
-0.12908551 0.26044524 0.72800004 4286217338
-0.12788628 0.26080301 0.72900003 4282335553
-0.12668325 0.26116076 0.73000002 4287862680
-0.12513317 0.26080301 0.72900003 4288783782
-0.12375661 0.26080301 0.72900003 4284770922
-0.12238005 0.26080301 0.72900003 4283915612
-0.12116949 0.26116076 0.73000002 4283520853
-0.11995514 0.26151851 0.73100001 4283981404
-0.11857481 0.26151851 0.73100001 4285560180
-0.11719447 0.26151851 0.73100001 4287073418
-0.11597257 0.26187629 0.73200005 4284573028
-0.1147469 0.26223403 0.73300004 4284441185
-0.11320813 0.26187629 0.73200005 4282269759
-0.11182591 0.26187629 0.73200005 4284111963
-0.11014193 0.26116076 0.73000002 4289967540
-0.10846551 0.26044524 0.72800004 4289441196
-0.10709084 0.26044524 0.72800004 4289573038
-0.10586139 0.26080301 0.72900003 4285691763
-0.10462816 0.26116076 0.73000002 4283257422
-0.10353259 0.26187629 0.73200005 4282401859
-0.10215037 0.26187629 0.73200005 4282401861
-0.10063049 0.26151851 0.73100001 4287270285
-0.09925016 0.26151851 0.73100001 4285822581
-0.097735941 0.26116076 0.73000002 4282072125
-0.0962255 0.26080301 0.72900003 4284638308
-0.094848938 0.26080301 0.72900003 4287861651
-0.093600616 0.26116076 0.73000002 4289440683
-0.092348501 0.26151851 0.73100001 4291151299
-0.090843722 0.26116076 0.73000002 4287466891
-0.089342721 0.26080301 0.72900003 4288059029
-0.087966166 0.26080301 0.72900003 4287533199
-0.086589612 0.26080301 0.72900003 4288059543
-0.08521305 0.26080301 0.72900003 4285230444
-0.083951503 0.26116076 0.73000002 4284111963
-0.082573064 0.26116076 0.73000002 4284704100
-0.081194617 0.26116076 0.73000002 4283454033
-0.079706833 0.26080301 0.72900003 4283454033
-0.078222826 0.26044524 0.72800004 4285625202
-0.076848164 0.26044524 0.72800004 4286875269
-0.075369827 0.26008752 0.72700006 4288651680
-0.074098825 0.26044524 0.72800004 4289046440
-0.072724164 0.26044524 0.72800004 4282927690
-0.071643516 0.26151851 0.73100001 4282138173
-0.070263185 0.26151851 0.73100001 4281217071
-0.06869439 0.26080301 0.72900003 4282335552
-0.067317836 0.26080301 0.72900003 4288454301
-0.066031739 0.26116076 0.73000002 4286809476
-0.064830422 0.26187629 0.73200005 4281940794
-0.063448206 0.26187629 0.73200005 4282796101
-0.061981194 0.26151851 0.73100001 4284901477
-0.06043506 0.26080301 0.72900003 4289375401
-0.059058506 0.26080301 0.72900003 4286677887
-0.057681948 0.26080301 0.72900003 4286743679
-0.05638263 0.26116076 0.73000002 4286480507
-0.055079535 0.26151851 0.73100001 4287796369
-0.053699203 0.26151851 0.73100001 4284704098
-0.052318871 0.26151851 0.73100001 4280822311
-0.050868854 0.26116076 0.73000002 4283256652
-0.049490411 0.26116076 0.73000002 4286348923
-0.047980152 0.26044524 0.72800004 4287664783
-0.046605486 0.26044524 0.72800004 4289046436
-0.045230817 0.26044524 0.72800004 4287730576
-0.043916397 0.26080301 0.72900003 4284704868
-0.042598192 0.26116076 0.73000002 4284112731
-0.041219749 0.26116076 0.73000002 4283191629
-0.03978673 0.26080301 0.72900003 4283125836
-0.038410172 0.26080301 0.72900003 4284836200
-0.037033617 0.26080301 0.72900003 4286020474
-0.035705972 0.26116076 0.73000002 4282598724
-0.034421578 0.26187629 0.73200005 4283388240
-0.033129632 0.26259178 0.73400003 4282006587
-0.031743634 0.26259178 0.73400003 4281348655
-0.030357635 0.26259178 0.73400003 4283257422
-0.028892698 0.26187629 0.73200005 4283849559
-0.027472895 0.26151851 0.73100001 4290691259
-0.026092563 0.26151851 0.73100001 4287006851
-0.024678424 0.26116076 0.73000002 4281019688
-0.023331899 0.26151851 0.73100001 4285230442
-0.021951566 0.26151851 0.73100001 4289374890
-0.020599376 0.26187629 0.73200005 4282598211
-0.01926966 0.26259178 0.73400003 4280558626
-0.017883664 0.26259178 0.73400003 4281216556
-0.016430238 0.26151851 0.73100001 4281808695
-0.015111671 0.26259178 0.73400003 4289901232
-0.013688275 0.26187629 0.73200005 4284966757
-0.012306054 0.26187629 0.73200005 4281085224
-0.010938757 0.26223403 0.73300004 4283519565
-0.0095546488 0.26223403 0.73300004 4287862160
-0.0081593934 0.26187629 0.73200005 4284178007
-0.0067679146 0.26151851 0.73100001 4283322698
-0.0053949533 0.26187629 0.73200005 4287533450
-0.0040127332 0.26187629 0.73200005 4287861902
-0.002626919 0.26151851 0.73100001 4286677628
-0.0012448818 0.26116076 0.73000002 4286480250
0.00013356197 0.26116076 0.73000002 4289308836
0.0015099344 0.26080301 0.72900003 4286413945
0.00288649 0.26080301 0.72900003 4281874740
0.0042747408 0.26151851 0.73100001 4281545776
0.0056628087 0.26187629 0.73200005 4283519824
0.0070450287 0.26187629 0.73200005 4285230442
0.0084272493 0.26187629 0.73200005 4283980375
0.0098094698 0.26187629 0.73200005 4282138171
0.011176401 0.26151851 0.73100001 4281809206
0.012539555 0.26116076 0.73000002 4283388237
0.013879867 0.26044524 0.72800004 4287269766
0.015254534 0.26044524 0.72800004 4289835693
0.016674887 0.26116076 0.73000002 4289704107
0.018102791 0.26187629 0.73200005 4288783005
0.019485012 0.26187629 0.73200005 4282401083
0.020867232 0.26187629 0.73200005 4282401083
0.022158265 0.26080301 0.72900003 4284243287
0.023534819 0.26080301 0.72900003 4284967010
0.024877204 0.26044524 0.72800004 4286678141
0.02628793 0.26080301 0.72900003 4284901730
0.027664486 0.26080301 0.72900003 4283520334
0.029041043 0.26080301 0.72900003 4283586384
0.030417597 0.26080301 0.72900003 4284441693
0.031794153 0.26080301 0.72900003 4286941827
0.033170708 0.26080301 0.72900003 4284704865
0.034547262 0.26080301 0.72900003 4281152043
0.03592382 0.26080301 0.72900003 4283717456
0.037300374 0.26080301 0.72900003 4286611835
0.038623877 0.26044524 0.72800004 4287467144
0.039998543 0.26044524 0.72800004 4287598730
0.041373212 0.26044524 0.72800004 4287072386
0.042806596 0.26080301 0.72900003 4284967268
0.04424376 0.26116076 0.73000002 4282203963
0.045622203 0.26116076 0.73000002 4281743413
0.047065031 0.26151851 0.73100001 4282072378
0.048445363 0.26151851 0.73100001 4282861894
0.049825694 0.26151851 0.73100001 4287138437
0.05113598 0.26116076 0.73000002 4288849055
0.052514423 0.26116076 0.73000002 4290230963
0.05396669 0.26151851 0.73100001 4284770658
0.055347022 0.26151851 0.73100001 4284046935
0.056804959 0.26187629 0.73200005 4289376168
0.058187179 0.26187629 0.73200005 4289639338
0.059488017 0.26151851 0.73100001 4290494649
0.06095162 0.26187629 0.73200005 4287073414
0.06250415 0.26259178 0.73400003 4284178522
0.063890152 0.26259178 0.73400003 4283060042
0.065454006 0.26330727 0.73600006 4282467906
0.0669346 0.26366505 0.73700005 4283915352
0.068048142 0.26259178 0.73400003 4284573282
0.069434136 0.26259178 0.73400003 4287073416
0.070723645 0.26223403 0.73300004 4288455069
0.072009377 0.26187629 0.73200005 4285560177
0.073391601 0.26187629 0.73200005 4283915095
0.074773818 0.26187629 0.73200005 4284177754
0.076052003 0.26151851 0.73100001 4284440926
0.077326402 0.26116076 0.73000002 4286546302
0.078704849 0.26116076 0.73000002 4288191127
0.080083296 0.26116076 0.73000002 4291283398
0.081684925 0.26187629 0.73200005 4286480509
0.083294109 0.26259178 0.73400003 4281282862
0.084680103 0.26259178 0.73400003 4283586387
0.086183347 0.26294953 0.73500001 4284310110
0.087571234 0.26294953 0.73500001 4282402113
0.088717058 0.26223403 0.73300004 4283981143
0.089732401 0.26116076 0.73000002 4286678656
0.09111084 0.26116076 0.73000002 4285625968
0.092362598 0.26080301 0.72900003 4285165417
0.093867727 0.26116076 0.73000002 4283849557
0.095246173 0.26116076 0.73000002 4283717971
0.09662462 0.26116076 0.73000002 4283849557
0.097868815 0.26080301 0.72900003 4285625199
0.099245369 0.26080301 0.72900003 4291020226
0.10075995 0.26116076 0.73000002 4289112230
0.10241823 0.26187629 0.73200005 4285164650
0.10408406 0.26259178 0.73400003 4282730308
0.10547005 0.26259178 0.73400003 4282335549
0.10685605 0.26259178 0.73400003 4289967536
0.10809458 0.26223403 0.73300004 4289178789
0.10917997 0.26151851 0.73100001 4288652445
0.11040905 0.26116076 0.73000002 4288784031
0.1117875 0.26116076 0.73000002 4290757052
0.11316594 0.26116076 0.73000002 4289704364
0.11454438 0.26116076 0.73000002 4285230441
0.11592283 0.26116076 0.73000002 4288454043
0.11762265 0.26187629 0.73200005 4292006608
0.11916745 0.26223403 0.73300004 4285624687
0.12055156 0.26223403 0.73300004 4284045655
0.12193567 0.26223403 0.73300004 4291414471
0.12331977 0.26223403 0.73300004 4290822334
0.12470388 0.26223403 0.73300004 4284374876
0.12643202 0.26294953 0.73500001 4282598720
0.127646 0.26259178 0.73400003 4282401341
0.12885621 0.26223403 0.73300004 4285756784
0.13041799 0.26259178 0.73400003 4289770670
0.13162442 0.26223403 0.73300004 4289507754
0.13318998 0.26259178 0.73400003 4284573022
0.13457598 0.26259178 0.73400003 4286283127
0.13596198 0.26259178 0.73400003 4291612105
0.13734797 0.26259178 0.73400003 4286875780
0.13873397 0.26259178 0.73400003 4283915352
0.14031087 0.26294953 0.73500001 4282994250
0.14189154 0.26330727 0.73600006 4283717972
0.14328131 0.26330727 0.73600006 4285889140
0.14467108 0.26330727 0.73600006 4288784032
0.14586242 0.26294953 0.73500001 4287928979
0.14725029 0.26294953 0.73500001 4285823602
0.14884041 0.26330727 0.73600006 4285165416
0.1504343 0.26366505 0.73700005 4285428588
0.15203197 0.2640228 0.73800004 4285691760
0.15321763 0.26366505 0.73700005 4290165684
0.15418972 0.26294953 0.73500001 4290428342
0.15515427 0.26223403 0.73300004 4290625465
0.15653838 0.26223403 0.73300004 4290164658
0.15792249 0.26223403 0.73300004 4288520090
0.15974127 0.26294953 0.73500001 4284572510
0.16134837 0.26330727 0.73600006 4281348909
0.16295926 0.26366505 0.73700005 4285559405
0.16435093 0.26366505 0.73700005 4287993746
0.1652928 0.26294953 0.73500001 4286414714
0.16622713 0.26223403 0.73300004 4288191381
0.16738258 0.26187629 0.73200005 4290691002
0.1687648 0.26187629 0.73200005 4289835950
0.17014703 0.26187629 0.73200005 4285690993
0.17152925 0.26187629 0.73200005 4283848789
0.17314768 0.26223403 0.73300004 4282138171
0.17453179 0.26223403 0.73300004 4285690734
0.1759159 0.26223403 0.73300004 4289375399
0.17754188 0.26259178 0.73400003 4285494381
0.1796592 0.26366505 0.73700005 4281481008
0.18154217 0.26438054 0.73900002 4281875766
0.18293761 0.26438054 0.73900002 4281020457
0.18383418 0.26366505 0.73700005 4289771182
0.18497452 0.26330727 0.73600006 4290034098
0.18484502 0.26116076 0.73000002 4288455066
0.18622346 0.26116076 0.73000002 4285099623
0.18785889 0.26151851 0.73100001 4284178521
0.18975697 0.26223403 0.73300004 4284770659
0.19114108 0.26223403 0.73300004 4284704866
0.19252519 0.26223403 0.73300004 4285165417
0.19417384 0.26259178 0.73400003 4285625968
0.19609271 0.26330727 0.73600006 4287336586
0.19775081 0.26366505 0.73700005 4288060309
0.19914247 0.26366505 0.73700005 4289705133
-0.19891991 0.26145744 0.72700006 4285033831
-0.19836232 0.26253635 0.73000002 4281744181
-0.19752356 0.26325566 0.73200005 4282928455
-0.19533749 0.26217672 0.72900003 4284968038
-0.19316274 0.26109779 0.72600001 4290429370
-0.19099931 0.26001889 0.72300005 4287929236
-0.18989639 0.26037854 0.72400004 4284310621
-0.18878967 0.26073813 0.72500002 4283521105
-0.18742067 0.26073813 0.72500002 4283783764
-0.18553841 0.26001889 0.72300005 4283060041
-0.1841732 0.26001889 0.72300005 4284178522
-0.18306082 0.26037854 0.72400004 4286086519
-0.18194465 0.26073813 0.72500002 4285363309
-0.18057565 0.26073813 0.72500002 4282007866
-0.1799482 0.26181707 0.72800004 4281876280
-0.17881882 0.26217672 0.72900003 4283389519
-0.17744227 0.26217672 0.72900003 4282467906
-0.17509964 0.26073813 0.72500002 4281349425
-0.17301176 0.25965926 0.72200006 4285954165
-0.17164843 0.25965926 0.72200006 4289506988
-0.17028509 0.25965926 0.72200006 4287862164
-0.1691557 0.26001889 0.72300005 4288454299
-0.16755842 0.25965926 0.72200006 4285098856
-0.16596489 0.25929961 0.72100002 4284770404
-0.16483174 0.25965926 0.72200006 4283454801
-0.16346841 0.25965926 0.72200006 4284441696
-0.16232958 0.26001889 0.72300005 4286218107
-0.16096435 0.26001889 0.72300005 4287731346
-0.15981989 0.26037854 0.72400004 4284704868
-0.15910932 0.26145744 0.72700006 4283652180
-0.15817049 0.26217672 0.72900003 4281480754
-0.15679394 0.26217672 0.72900003 4281940792
-0.15499099 0.26145744 0.72700006 4284177754
-0.15340692 0.26109779 0.72600001 4286941060
-0.1516172 0.26037854 0.72400004 4289770159
-0.15004255 0.26001889 0.72300005 4290098868
-0.14888297 0.26037854 0.72400004 4290493369
-0.14751585 0.26037854 0.72400004 4285954165
-0.14614874 0.26037854 0.72400004 4286151544
-0.14498159 0.26073813 0.72500002 4290954433
-0.14361259 0.26073813 0.72500002 4288322713
-0.1424398 0.26109779 0.72600001 4287598990
-0.14145751 0.26181707 0.72800004 4284506719
-0.14046769 0.26253635 0.73000002 4281414448
-0.13927978 0.262896 0.73100001 4281480242
-0.13789946 0.262896 0.73100001 4282203965
-0.13558534 0.26109779 0.72600001 4287927955
-0.13402957 0.26073813 0.72500002 4288849057
-0.13266057 0.26073813 0.72500002 4291480777
-0.13111049 0.26037854 0.72400004 4289572780
-0.12974337 0.26037854 0.72400004 4288914850
-0.12855357 0.26073813 0.72500002 4285033064
-0.12736 0.26109779 0.72600001 4282730310
-0.12616263 0.26145744 0.72700006 4287598993
-0.12478986 0.26145744 0.72700006 4286744199
-0.12324733 0.26109779 0.72600001 4284968300
-0.12187643 0.26109779 0.72600001 4284047197
-0.12083751 0.26181707 0.72800004 4284441955
-0.11962694 0.26217672 0.72900003 4284112990
-0.1184126 0.26253635 0.73000002 4287402383
-0.11703415 0.26253635 0.73000002 4287073162
-0.11581414 0.262896 0.73100001 4284835943
-0.11443381 0.262896 0.73100001 4284638307
-0.11274416 0.26217672 0.72900003 4282269759
-0.11136761 0.26217672 0.72900003 4284440928
-0.10953842 0.26109779 0.72600001 4289835954
-0.10801854 0.26073813 0.72500002 4289770161
-0.10679664 0.26109779 0.72600001 4288717730
-0.10557096 0.26145744 0.72700006 4283651925
-0.10419818 0.26145744 0.72700006 4281809721
-0.10310827 0.26217672 0.72900003 4282270274
-0.10187127 0.26253635 0.73000002 4282204225
-0.10035516 0.26217672 0.72900003 4287204492
-0.098978609 0.26217672 0.72900003 4286151546
-0.097468168 0.26181707 0.72800004 4282203968
-0.095961504 0.26145744 0.72700006 4286809477
-0.094718836 0.26181707 0.72800004 4288322715
-0.093344167 0.26181707 0.72800004 4289638317
-0.09209583 0.26217672 0.72900003 4289506474
-0.090719275 0.26217672 0.72900003 4286743425
-0.089220166 0.26181707 0.72800004 4286677888
-0.087724835 0.26145744 0.72700006 4286415229
-0.086352058 0.26145744 0.72700006 4287533969
-0.084979273 0.26145744 0.72700006 4285428592
-0.083721496 0.26181707 0.72800004 4284046938
-0.082346834 0.26181707 0.72800004 4284573282
-0.080972165 0.26181707 0.72800004 4283191629
-0.079488158 0.26145744 0.72700006 4283191116
-0.078115381 0.26145744 0.72700006 4285559408
-0.076637045 0.26109779 0.72600001 4287204234
-0.075266153 0.26109779 0.72600001 4289046438
-0.073997043 0.26145744 0.72700006 4288914598
-0.072824053 0.26217672 0.72900003 4281940540
-0.071447499 0.26217672 0.72900003 4281545782
-0.069974825 0.26181707 0.72800004 4281611575
-0.068505928 0.26145744 0.72700006 4285164397
-0.067133151 0.26145744 0.72700006 4289375403
-0.065760374 0.26145744 0.72700006 4285559409
-0.064653292 0.26253635 0.73000002 4281677622
-0.063274853 0.26253635 0.73000002 4281875001
-0.061726823 0.26181707 0.72800004 4284901479
-0.060269255 0.26145744 0.72700006 4289178023
-0.058896478 0.26145744 0.72700006 4286217335
-0.057444576 0.26109779 0.72600001 4286677886
-0.056228153 0.26181707 0.72800004 4286217335
-0.055004187 0.26253635 0.73000002 4287730576
-0.05362574 0.26253635 0.73000002 4284111961
-0.052247297 0.26253635 0.73000002 4281348655
-0.050799172 0.26217672 0.72900003 4286348923
-0.049287025 0.26145744 0.72700006 4286612095
-0.047914248 0.26145744 0.72700006 4288585885
-0.046541467 0.26145744 0.72700006 4290230710
-0.04516869 0.26145744 0.72700006 4287533710
-0.043856151 0.26181707 0.72800004 4285362798
-0.042539839 0.26217672 0.72900003 4283915352
-0.041163284 0.26217672 0.72900003 4283125836
-0.039732151 0.26181707 0.72800004 4282993996
-0.038357481 0.26181707 0.72800004 4285033581
-0.036932018 0.26145744 0.72700006 4286546820
-0.035657063 0.26217672 0.72900003 4282861642
-0.034374557 0.262896 0.73100001 4283322193
-0.033039358 0.26325566 0.73200005 4282401345
-0.031700384 0.26361525 0.73300004 4281743413
-0.030316278 0.26361525 0.73300004 4283323215
-0.028853226 0.262896 0.73100001 4283980373
-0.027435312 0.26253635 0.73000002 4290559928
-0.026056867 0.26253635 0.73000002 4288717724
-0.024577007 0.26145744 0.72700006 4281085736
-0.023236146 0.26181707 0.72800004 4285033061
-0.021861479 0.26181707 0.72800004 4289440681
-0.020543093 0.26253635 0.73000002 4283585106
-0.019217156 0.26325566 0.73200005 4280624675
-0.017786205 0.26253635 0.73000002 4281413935
-0.016340334 0.26145744 0.72700006 4282006329
-0.014967554 0.26145744 0.72700006 4289111716
-0.013594775 0.26145744 0.72700006 4285098854
-0.012221997 0.26145744 0.72700006 4280822564
-0.010864141 0.26181707 0.72800004 4284967523
-0.0095025087 0.26217672 0.72900003 4288257173
-0.0081371004 0.26253635 0.73000002 4284441179
-0.0067493981 0.26217672 0.72900003 4283256905
-0.0053728428 0.26217672 0.72900003 4287796109
-0.0039908052 0.26181707 0.72800004 4287927695
-0.0026125447 0.26145744 0.72700006 4286546042
-0.0012397658 0.26145744 0.72700006 4286742909
0.00013283013 0.26109779 0.72600001 4289637803
0.0015037206 0.26109779 0.72600001 4286019188
0.0028785707 0.26145744 0.72700006 4282071608
0.004268893 0.26253635 0.73000002 4282006072
0.0056550731 0.262896 0.73100001 4284571999
0.0070354049 0.262896 0.73100001 4286217337
0.0084042242 0.26253635 0.73000002 4283914582
0.0097692674 0.26217672 0.72900003 4281940792
0.011115244 0.26145744 0.72700006 4282861892
0.012453668 0.26073813 0.72500002 4283782994
0.01382267 0.26073813 0.72500002 4285691246
0.015191672 0.26073813 0.72500002 4289638826
0.016583517 0.26109779 0.72600001 4288915103
0.018003868 0.26181707 0.72800004 4287336071
0.019378535 0.26181707 0.72800004 4282006838
0.020753203 0.26181707 0.72800004 4283191112
0.022097474 0.26145744 0.72700006 4284309593
0.023437969 0.26109779 0.72600001 4284704096
0.024808861 0.26109779 0.72600001 4286480507
0.026215812 0.26145744 0.72700006 4285164647
0.027588591 0.26145744 0.72700006 4283323213
0.028921533 0.26109779 0.72600001 4283191626
0.030250698 0.26073813 0.72500002 4284770658
0.031663314 0.26109779 0.72600001 4286876034
0.033034202 0.26109779 0.72600001 4284902244
0.034405094 0.26109779 0.72600001 4280757285
0.035775982 0.26109779 0.72600001 4282927940
0.037146874 0.26109779 0.72600001 4286414456
0.038517766 0.26109779 0.72600001 4287467144
0.039888654 0.26109779 0.72600001 4290756794
0.041202717 0.26073813 0.72500002 4288125074
0.042512998 0.26037854 0.72400004 4287270023
0.043940723 0.26073813 0.72500002 4284046168
0.045309722 0.26073813 0.72500002 4281282862
0.046871878 0.26181707 0.72800004 4281085999
0.048312817 0.26217672 0.72900003 4282138941
0.049621213 0.26181707 0.72800004 4287138437
0.050925832 0.26145744 0.72700006 4287862160
0.05222667 0.26109779 0.72600001 4289309861
0.05367139 0.26145744 0.72700006 4285033316
0.055195596 0.26217672 0.72900003 4283981142
0.05657215 0.26217672 0.72900003 4287336585
0.057948705 0.26217672 0.72900003 4289178789
0.059243884 0.26181707 0.72800004 4290757821
0.060701817 0.26217672 0.72900003 4288849825
0.062163524 0.26253635 0.73000002 4284441694
0.063716061 0.26325566 0.73200005 4283454801
0.065276146 0.26397491 0.73400003 4282336320
0.06666214 0.26397491 0.73400003 4282073148
0.067955427 0.26361525 0.73300004 4281546804
0.069244944 0.26325566 0.73200005 4286547072
0.07043419 0.26253635 0.73000002 4289310378
0.07161589 0.26181707 0.72800004 4285691507
0.073191077 0.26253635 0.73000002 4284506719
0.074569516 0.26253635 0.73000002 4283980375
0.075947963 0.26253635 0.73000002 4284375133
0.077220485 0.26217672 0.72900003 4287533197
0.078597039 0.26217672 0.72900003 4288191384
0.079644479 0.26109779 0.72600001 4290757054
0.081461735 0.26253635 0.73000002 4287993748
0.083067141 0.26325566 0.73200005 4282730308
0.084564731 0.26361525 0.73300004 4283717973
0.086066097 0.26397491 0.73400003 4284507489
0.087452099 0.26397491 0.73400003 4282665285
0.088596024 0.26325566 0.73200005 4282073146
0.089732401 0.26253635 0.73000002 4288060309
0.090986036 0.26217672 0.72900003 4286547070
0.092235893 0.26181707 0.72800004 4284507488
0.093610562 0.26181707 0.72800004 4283652180
0.095115706 0.26217672 0.72900003 4283915352
0.096492261 0.26217672 0.72900003 4283388238
0.097600311 0.26145744 0.72700006 4284572511
0.098973088 0.26145744 0.72700006 4290164917
0.10062192 0.26217672 0.72900003 4289704366
0.10227831 0.262896 0.73100001 4285427823
0.10380045 0.26325566 0.73200005 4283388239
0.10532636 0.26361525 0.73300004 4282730308
0.10656489 0.26325566 0.73200005 4288980898
0.10779963 0.262896 0.73100001 4289047204
0.10903061 0.26253635 0.73000002 4289178790
0.11010657 0.26181707 0.72800004 4289441449
0.11163437 0.26217672 0.72900003 4290954431
0.1128559 0.26181707 0.72800004 4291480775
0.11423057 0.26181707 0.72800004 4286283128
0.11576404 0.26217672 0.72900003 4287006340
0.11746196 0.262896 0.73100001 4292730331
0.11835457 0.26181707 0.72800004 4288979873
0.11956477 0.26145744 0.72700006 4283848019
0.1207712 0.26109779 0.72600001 4289308838
0.12214209 0.26109779 0.72600001 4291546057
0.12368311 0.26145744 0.72700006 4286348410
0.12522791 0.26181707 0.72800004 4283124553
0.12729819 0.26325566 0.73200005 4282401085
0.12868042 0.26325566 0.73200005 4283782737
0.13024032 0.26361525 0.73300004 4291020480
0.13144486 0.26325566 0.73200005 4288849824
0.13282707 0.26325566 0.73200005 4282270267
0.13420931 0.26325566 0.73200005 4284112214
0.13559152 0.26325566 0.73200005 4291481287
0.13697374 0.26325566 0.73200005 4287862930
0.13835596 0.26325566 0.73200005 4285231210
0.13992907 0.26361525 0.73300004 4283586385
0.14150596 0.26397491 0.73400003 4284046936
0.14289196 0.26397491 0.73400003 4285494382
0.14447454 0.26433453 0.73500001 4287007621
0.14526705 0.26325566 0.73200005 4289244583
0.14644893 0.262896 0.73100001 4287468172
0.1480315 0.26325566 0.73200005 4285033831
0.15023018 0.26469418 0.73600006 4284770658
0.15182596 0.26505384 0.73700005 4285757553
0.15300973 0.26469418 0.73600006 4287270792
0.15397994 0.26397491 0.73400003 4289244068
0.1549426 0.26325566 0.73200005 4290757307
0.15589771 0.26253635 0.73000002 4290625721
0.15727615 0.26253635 0.73000002 4288257173
0.15908927 0.26325566 0.73200005 4285559660
0.16090992 0.26397491 0.73400003 4281677873
0.16251704 0.26433453 0.73500001 4285099109
0.16390492 0.26433453 0.73500001 4289638571
0.16439325 0.262896 0.73100001 4288191125
0.16577359 0.262896 0.73100001 4288717469
0.16692525 0.26253635 0.73000002 4288980384
0.1683037 0.26253635 0.73000002 4291151810
0.16968215 0.26253635 0.73000002 4285756784
0.17106058 0.26253635 0.73000002 4282861894
0.17243902 0.26253635 0.73000002 4282992967
0.17429368 0.26325566 0.73200005 4284638046
0.1759159 0.26361525 0.73300004 4288980641
0.17754188 0.26397491 0.73400003 4287862673
0.1796592 0.26505384 0.73700005 4282336317
0.18154217 0.26577312 0.73900002 4281283629
0.18070969 0.26253635 0.73000002 4281481262
0.18183869 0.26217672 0.72900003 4287074180
0.18271261 0.26145744 0.72700006 4290166451
0.18408538 0.26145744 0.72700006 4288850591
0.18545817 0.26145744 0.72700006 4286481789
0.18734491 0.26217672 0.72900003 4285231209
0.18898036 0.26253635 0.73000002 4284968038
0.1903588 0.26253635 0.73000002 4285033831
0.19173723 0.26253635 0.73000002 4284639073
0.19311568 0.26253635 0.73000002 4283323470
0.19449413 0.26253635 0.73000002 4287665551
0.19640921 0.26325566 0.73200005 4288718239
0.19860205 0.26433453 0.73500001 4288718494
0.19890155 0.262896 0.73100001 4287797393
-0.19946618 0.2617428 0.72400004 4288323483
-0.19809908 0.2617428 0.72400004 4282402113
-0.19754714 0.2628274 0.72700006 4282665540
-0.1964442 0.2631889 0.72800004 4284113242
-0.19453363 0.26246586 0.72600001 4286810755
-0.19209848 0.26101977 0.72200006 4290429370
-0.19047098 0.26065823 0.72100002 4286021239
-0.18910952 0.26065823 0.72100002 4283126347
-0.18800847 0.26101977 0.72200006 4283389263
-0.18690364 0.26138127 0.72300005 4283323213
-0.18553841 0.26138127 0.72300005 4283323213
-0.1841732 0.26138127 0.72300005 4283915350
-0.18306082 0.2617428 0.72400004 4287862930
-0.18219562 0.26246586 0.72600001 4285494895
-0.18082473 0.26246586 0.72600001 4281876280
-0.18019539 0.26355043 0.72900003 4282073659
-0.17906411 0.26391193 0.73000002 4283520848
-0.17768566 0.26391193 0.73000002 4281941560
-0.17509964 0.26210433 0.72500002 4281678390
-0.17325139 0.26138127 0.72300005 4289507243
-0.17188616 0.26138127 0.72300005 4289375403
-0.17052093 0.26138127 0.72300005 4287862162
-0.1691557 0.26138127 0.72300005 4287664783
-0.16755842 0.26101977 0.72200006 4284770660
-0.16596489 0.26065823 0.72100002 4284441695
-0.16460344 0.26065823 0.72100002 4283783764
-0.16346841 0.26101977 0.72200006 4283520592
-0.16232958 0.26138127 0.72300005 4287139207
-0.16096435 0.26138127 0.72300005 4286678657
-0.16004062 0.26210433 0.72500002 4284244317
-0.15910932 0.2628274 0.72700006 4282270527
-0.15817049 0.26355043 0.72900003 4281414448
-0.15657885 0.2631889 0.72800004 4282664515
-0.15477781 0.26246586 0.72600001 4284901477
-0.1531956 0.26210433 0.72500002 4289243815
-0.1516172 0.2617428 0.72400004 4289506987
-0.15004255 0.26138127 0.72300005 4290625466
-0.14888297 0.2617428 0.72400004 4289441448
-0.14751585 0.2617428 0.72400004 4284572765
-0.14614874 0.2617428 0.72400004 4287467402
-0.14478162 0.2617428 0.72400004 4290757052
-0.14361259 0.26210433 0.72500002 4287730831
-0.1424398 0.26246586 0.72600001 4287007623
-0.14145751 0.2631889 0.72800004 4282862664
-0.14046769 0.26391193 0.73000002 4282007355
-0.13889872 0.26355043 0.72900003 4281546550
-0.13714486 0.2628274 0.72700006 4283849304
-0.13539858 0.26210433 0.72500002 4288585886
-0.13402957 0.26210433 0.72500002 4287862162
-0.1324776 0.2617428 0.72400004 4289046436
-0.13111049 0.2617428 0.72400004 4288585883
-0.12974337 0.2617428 0.72400004 4288191125
-0.12855357 0.26210433 0.72500002 4283059271
-0.12736 0.26246586 0.72600001 4282072378
-0.12598911 0.26246586 0.72600001 4285757044
-0.12461822 0.26246586 0.72600001 4285823095
-0.12324733 0.26246586 0.72600001 4284902249
-0.12187643 0.26246586 0.72600001 4283586646
-0.12083751 0.2631889 0.72800004 4284178783
-0.11962694 0.26355043 0.72900003 4284047197
-0.1184126 0.26391193 0.73000002 4288191900
-0.11703415 0.26391193 0.73000002 4286349439
-0.11581414 0.26427346 0.73100001 4283980634
-0.11427727 0.26391193 0.73000002 4282927689
-0.11258951 0.2631889 0.72800004 4281940794
-0.11121484 0.2631889 0.72800004 4285033322
-0.10953842 0.26246586 0.72600001 4289704626
-0.10786954 0.2617428 0.72400004 4290231228
-0.10650243 0.2617428 0.72400004 4289639090
-0.10513531 0.2617428 0.72400004 4285099372
-0.1037682 0.2617428 0.72400004 4282204480
-0.10254253 0.26210433 0.72500002 4281743930
-0.10145262 0.2628274 0.72700006 4282269762
-0.10021751 0.2631889 0.72800004 4287730324
-0.098842837 0.2631889 0.72800004 4286151547
-0.097334288 0.2628274 0.72700006 4282203964
-0.095829509 0.26246586 0.72600001 4285822322
-0.094458625 0.26246586 0.72600001 4287467147
-0.09321595 0.2628274 0.72700006 4288914848
-0.091843173 0.2628274 0.72700006 4288652190
-0.090470389 0.2628274 0.72700006 4285560175
-0.088975057 0.26246586 0.72600001 4285494383
-0.087604165 0.26246586 0.72600001 4286547072
-0.086114503 0.26210433 0.72500002 4285165419
-0.084628604 0.2617428 0.72400004 4283389008
-0.083376497 0.26210433 0.72500002 4283257422
-0.08200749 0.26210433 0.72500002 4283981145
-0.080638491 0.26210433 0.72500002 4283125836
-0.079378828 0.26246586 0.72600001 4283849044
-0.078007936 0.26246586 0.72600001 4285033063
-0.076425917 0.2617428 0.72400004 4287270027
-0.075058803 0.2617428 0.72400004 4289901234
-0.073691688 0.2617428 0.72400004 4288717218
-0.072424479 0.26210433 0.72500002 4281479989
-0.071055472 0.26210433 0.72500002 4281611575
-0.069590345 0.2617428 0.72400004 4281677368
-0.068223231 0.2617428 0.72400004 4286743429
-0.066763781 0.26138127 0.72300005 4287269773
-0.065398552 0.26138127 0.72300005 4282467138
-0.064299032 0.26246586 0.72600001 4281808952
-0.063014813 0.2628274 0.72700006 4283651412
-0.061472457 0.26210433 0.72500002 4284638307
-0.060020555 0.2617428 0.72400004 4289112229
-0.05865344 0.2617428 0.72400004 4287598990
-0.057286326 0.2617428 0.72400004 4286743681
-0.056073684 0.26246586 0.72600001 4286677890
-0.054853488 0.2631889 0.72800004 4287664785
-0.053552281 0.26355043 0.72900003 4284045916
-0.052247297 0.26391193 0.73000002 4281677622
-0.050799172 0.26355043 0.72900003 4285822581
-0.049219232 0.26246586 0.72600001 4287138441
-0.04784834 0.26246586 0.72600001 4288849057
-0.046477452 0.26246586 0.72600001 4288520349
-0.04510656 0.26246586 0.72600001 4287402381
-0.043735668 0.26246586 0.72600001 4286152314
-0.042423133 0.2628274 0.72700006 4283849559
-0.041106816 0.2631889 0.72800004 4283651412
-0.039732151 0.2631889 0.72800004 4283914584
-0.038304795 0.2628274 0.72700006 4285295983
-0.036830414 0.26210433 0.72500002 4286348671
-0.035510328 0.26246586 0.72600001 4283190607
-0.03418646 0.2628274 0.72700006 4283914330
-0.032903951 0.26355043 0.72900003 4281875001
-0.031570643 0.26391193 0.73000002 4281743413
-0.030192198 0.26391193 0.73000002 4283454031
-0.028695343 0.2628274 0.72700006 4284046167
-0.027322564 0.2628274 0.72700006 4289309606
-0.02591409 0.26246586 0.72600001 4289901998
-0.0245432 0.26246586 0.72600001 4282335803
-0.023204228 0.2628274 0.72700006 4283520077
-0.021861479 0.2631889 0.72800004 4289638826
-0.020543093 0.26391193 0.73000002 4284243545
-0.019190902 0.26427346 0.73100001 4281809204
-0.017786205 0.26391193 0.73000002 4281085481
-0.016340334 0.2628274 0.72700006 4281809206
-0.014967554 0.2628274 0.72700006 4289572778
-0.013594775 0.2628274 0.72700006 4287467657
-0.012221997 0.2628274 0.72700006 4281809459
-0.010864141 0.2631889 0.72800004 4285099109
-0.0095025087 0.26355043 0.72900003 4288454552
-0.0081259534 0.26355043 0.72900003 4284901730
-0.0067401398 0.2631889 0.72800004 4283191112
-0.0053728428 0.26355043 0.72900003 4288783004
-0.0039908052 0.2631889 0.72800004 4288125074
-0.0026125447 0.2628274 0.72700006 4286217077
-0.0012397658 0.2628274 0.72700006 4286677373
0.00013283013 0.26246586 0.72600001 4288124564
0.0015037206 0.26246586 0.72600001 4283913812
0.0028825302 0.2631889 0.72800004 4281874486
0.0042630453 0.26355043 0.72900003 4281742900
0.0056550731 0.26427346 0.73100001 4284308827
0.0070257806 0.26391193 0.73000002 4286151544
0.0084042242 0.26391193 0.73000002 4285625200
0.0097558657 0.2631889 0.72800004 4283125064
0.011099955 0.26246586 0.72600001 4283059271
0.012453668 0.26210433 0.72500002 4284112214
0.01382267 0.26210433 0.72500002 4286085491
0.015191672 0.26210433 0.72500002 4289638313
0.016560676 0.26210433 0.72500002 4288585625
0.017979138 0.2628274 0.72700006 4286875007
0.019351916 0.2628274 0.72700006 4282269497
0.020724695 0.2628274 0.72700006 4283322185
0.022097474 0.2628274 0.72700006 4283585357
0.023437969 0.26246586 0.72600001 4284572253
0.024774689 0.26210433 0.72500002 4286875265
0.026179751 0.26246586 0.72600001 4284704610
0.027550641 0.26246586 0.72600001 4282270525
0.028881697 0.26210433 0.72500002 4282664513
0.030083798 0.26065823 0.72100002 4283980373
0.031445246 0.26065823 0.72100002 4286876035
0.032852199 0.26101977 0.72200006 4287139719
0.034262925 0.26138127 0.72300005 4282007352
0.035628151 0.26138127 0.72300005 4282796354
0.037044544 0.2617428 0.72400004 4286349176
0.038517766 0.26246586 0.72600001 4288651417
0.039888654 0.26246586 0.72600001 4291283138
0.041145884 0.2617428 0.72400004 4288322966
0.04245428 0.26138127 0.72300005 4287927953
0.043819506 0.26138127 0.72300005 4285164649
0.045309722 0.26210433 0.72500002 4280822568
0.046871878 0.2631889 0.72800004 4280757033
0.048312817 0.26355043 0.72900003 4284112731
0.049689375 0.26355043 0.72900003 4288455068
0.050925832 0.2628274 0.72700006 4287862930
0.052082796 0.2617428 0.72400004 4289639340
0.05344991 0.2617428 0.72400004 4287862929
0.05496845 0.26246586 0.72600001 4284375386
0.056339342 0.26246586 0.72600001 4285954418
0.057710234 0.26246586 0.72600001 4290034098
0.058999747 0.26210433 0.72500002 4290297270
0.06036875 0.26210433 0.72500002 4289441962
0.06173775 0.26210433 0.72500002 4285889140
0.063629016 0.26427346 0.73100001 4283586387
0.065187216 0.2649965 0.73300004 4282533699
0.066571325 0.2649965 0.73300004 4281941306
0.067862719 0.264635 0.73200005 4283519824
0.069150344 0.26427346 0.73100001 4287204232
0.070337705 0.26355043 0.72900003 4288257690
0.07161589 0.2631889 0.72800004 4285428847
0.072990559 0.2631889 0.72800004 4284572767
0.074160919 0.26246586 0.72600001 4284506717
0.075531811 0.26246586 0.72600001 4284704868
0.07679677 0.26210433 0.72500002 4287336588
0.078057967 0.2617428 0.72400004 4288388508
0.079425082 0.2617428 0.72400004 4290428091
0.080792196 0.2617428 0.72400004 4287401611
0.082272783 0.26210433 0.72500002 4283651410
0.083872527 0.2628274 0.72700006 4283060043
0.085831583 0.264635 0.73200005 4283257422
0.087213807 0.264635 0.73200005 4282336320
0.088474989 0.26427346 0.73100001 4281941560
0.089732401 0.26391193 0.73000002 4288849825
0.090861231 0.2631889 0.72800004 4288784033
0.092235893 0.2631889 0.72800004 4285165419
0.093353391 0.26246586 0.72600001 4284441696
0.094724275 0.26246586 0.72600001 4284573282
0.096095167 0.26246586 0.72600001 4283981145
0.097466059 0.26246586 0.72600001 4283717971
0.098836951 0.26246586 0.72600001 4288257175
0.10020784 0.26246586 0.72600001 4290625468
0.10171865 0.2628274 0.72700006 4286283130
0.10309143 0.2628274 0.72700006 4283454030
0.1046079 0.2631889 0.72800004 4281611825
0.10583699 0.2628274 0.72700006 4284835682
0.10720976 0.2628274 0.72700006 4289375399
0.10843319 0.26246586 0.72600001 4289243812
0.10950159 0.2617428 0.72400004 4288849310
0.1108687 0.2617428 0.72400004 4290296756
0.11223581 0.2617428 0.72400004 4291941581
0.11360293 0.2617428 0.72400004 4287467402
0.11512884 0.26210433 0.72500002 4285427563
0.11665853 0.26246586 0.72600001 4291677643
0.11786684 0.26210433 0.72500002 4291874765
0.11907139 0.2617428 0.72400004 4284571998
0.1204385 0.2617428 0.72400004 4285624941
0.12180562 0.2617428 0.72400004 4292401621
0.12334285 0.26210433 0.72500002 4287269512
0.12471186 0.26210433 0.72500002 4282335037
0.12660258 0.2631889 0.72800004 4282729795
0.12815303 0.26355043 0.72900003 4283256139
0.12952958 0.26355043 0.72900003 4291743691
0.13072658 0.2631889 0.72800004 4290493879
0.13191979 0.2628274 0.72700006 4283914835
0.13329257 0.2628274 0.72700006 4283125319
0.13466536 0.2628274 0.72700006 4291481030
0.13603812 0.2628274 0.72700006 4289112740
0.13778892 0.26355043 0.72900003 4285823347
0.13973819 0.264635 0.73200005 4283915350
0.1409276 0.26427346 0.73100001 4283257420
0.14230794 0.26427346 0.73100001 4283915350
0.14349172 0.26391193 0.73000002 4286086519
0.14467169 0.26355043 0.72900003 4288981411
0.14584792 0.2631889 0.72800004 4287533964
0.1474248 0.26355043 0.72900003 4285099623
0.14880136 0.26355043 0.72900003 4284310107
0.15058993 0.26427346 0.73100001 4284902244
0.15217817 0.264635 0.73200005 4283389005
0.15356039 0.264635 0.73200005 4287994001
0.15473093 0.26427346 0.73100001 4290559928
0.15589771 0.26391193 0.73000002 4291349444
0.15727615 0.26391193 0.73000002 4289770412
0.15865459 0.26391193 0.73000002 4289375654
0.16025226 0.26427346 0.73100001 4283322698
0.16163258 0.26427346 0.73100001 4285822832
0.16256692 0.26355043 0.72900003 4290165170
0.16394347 0.26355043 0.72900003 4289046434
0.1655468 0.26391193 0.73000002 4288717469
0.16692525 0.26391193 0.73000002 4288519833
0.16807313 0.26355043 0.72900003 4291546568
0.16921726 0.2631889 0.72800004 4288585883
0.17059192 0.2631889 0.72800004 4283717201
0.1722028 0.26355043 0.72900003 4283124807
0.17405558 0.26427346 0.73100001 4282072119
0.1759159 0.2649965 0.73300004 4285559148
0.17730001 0.2649965 0.73300004 4288980896
0.17844035 0.264635 0.73200005 4284112214
0.17908558 0.26355043 0.72900003 4280691492
0.17996705 0.2628274 0.72700006 4281415215
0.18109038 0.26246586 0.72600001 4282468414
0.18220995 0.26210433 0.72500002 4290166195
0.18383217 0.26246586 0.72600001 4288455577
0.18520306 0.26246586 0.72600001 4288257687
0.18708792 0.2631889 0.72800004 4285691760
0.18898036 0.26391193 0.73000002 4284375900
0.1903588 0.26391193 0.73000002 4283783764
0.19147457 0.26355043 0.72900003 4284310108
0.19285113 0.26355043 0.72900003 4284705379
0.19422768 0.26355043 0.72900003 4287205513
0.19614089 0.26427346 0.73100001 4287666063
0.19752121 0.26427346 0.73100001 4288455322
0.19890155 0.26427346 0.73100001 4288389273
-0.19891518 0.2623803 0.72200006 4286414973
-0.19755185 0.2623803 0.72200006 4282073148
-0.19646022 0.26274368 0.72300005 4283389008
-0.195095 0.26274368 0.72300005 4284375903
-0.19292592 0.26165345 0.72000003 4288323482
-0.19130029 0.26129007 0.71900004 4290297271
-0.18994263 0.26129007 0.71900004 4285560431
-0.18858495 0.26129007 0.71900004 4283192140
-0.18748766 0.26165345 0.72000003 4283850070
-0.18638663 0.26201686 0.72100002 4283784023
-0.1852818 0.2623803 0.72200006 4284047195
-0.18391846 0.2623803 0.72200006 4284310367
-0.18280797 0.26274368 0.72300005 4287862932
-0.1816937 0.26310709 0.72400004 4285165930
-0.1803266 0.26310709 0.72400004 4281218350
-0.17871229 0.26274368 0.72300005 4283191883
-0.17857353 0.26456073 0.72800004 4284046936
-0.17719886 0.26456073 0.72800004 4281809974
-0.17485814 0.26310709 0.72400004 4280757286
-0.17301176 0.2623803 0.72200006 4289310378
-0.17164843 0.2623803 0.72200006 4289507756
-0.17004924 0.26201686 0.72100002 4287796368
-0.16892175 0.2623803 0.72200006 4285625199
-0.16732633 0.26201686 0.72100002 4284835682
-0.16550452 0.26129007 0.71900004 4284507487
-0.16414684 0.26129007 0.71900004 4283981143
-0.16301557 0.26165345 0.72000003 4285428589
-0.16210507 0.2623803 0.72200006 4288060309
-0.16074173 0.2623803 0.72200006 4285165417
-0.16004062 0.2634705 0.72500002 4283783764
-0.15910932 0.26419732 0.72700006 4282533440
-0.15773655 0.26419732 0.72700006 4282072377
-0.1559336 0.2634705 0.72500002 4284111961
-0.15392505 0.2623803 0.72200006 4285362028
-0.15256171 0.2623803 0.72200006 4290493882
-0.15098895 0.26201686 0.72100002 4289770159
-0.14962749 0.26201686 0.72100002 4290493881
-0.1484717 0.2623803 0.72200006 4288454297
-0.14710836 0.2623803 0.72200006 4285230697
-0.14574502 0.2623803 0.72200006 4289112740
-0.14438169 0.2623803 0.72200006 4289573548
-0.14321642 0.26274368 0.72300005 4287533966
-0.14224359 0.2634705 0.72500002 4285889142
-0.14106891 0.26383391 0.72600001 4282467906
-0.13969801 0.26383391 0.72600001 4282073148
-0.13813658 0.2634705 0.72500002 4282073148
-0.13657895 0.26310709 0.72400004 4283980889
-0.13502507 0.26274368 0.72300005 4287401611
-0.13365984 0.26274368 0.72300005 4287796369
-0.13229461 0.26274368 0.72300005 4288914850
-0.1309294 0.26274368 0.72300005 4287533197
-0.12956417 0.26274368 0.72300005 4285690991
-0.12819894 0.26274368 0.72300005 4282203962
-0.12700914 0.26310709 0.72400004 4284046168
-0.12564203 0.26310709 0.72400004 4288520350
-0.12427492 0.26310709 0.72400004 4285954681
-0.1229078 0.26310709 0.72400004 4284836199
-0.12154068 0.26310709 0.72400004 4283191630
-0.12050554 0.26383391 0.72600001 4283520851
-0.11929875 0.26419732 0.72700006 4284047196
-0.11825038 0.26492414 0.72900003 4288323485
-0.11687383 0.26492414 0.72900003 4286415232
-0.11549728 0.26492414 0.72900003 4282862410
-0.11380763 0.26419732 0.72700006 4281743929
-0.11197088 0.26310709 0.72400004 4281283378
-0.11060376 0.26310709 0.72400004 4285362544
-0.10908578 0.26274368 0.72300005 4289573296
-0.10757156 0.2623803 0.72200006 4291152328
-0.10620822 0.2623803 0.72200006 4288257436
-0.10469967 0.26201686 0.72100002 4284375905
-0.10333823 0.26201686 0.72100002 4282138687
-0.10197677 0.26201686 0.72100002 4281743930
-0.10103397 0.26310709 0.72400004 4285362033
-0.10007984 0.26419732 0.72700006 4288256668
-0.098707065 0.26419732 0.72700006 4283980122
-0.097066522 0.2634705 0.72500002 4281217070
-0.095697515 0.2634705 0.72500002 4284901220
-0.094198398 0.26310709 0.72400004 4288125077
-0.092831284 0.26310709 0.72400004 4289112227
-0.091464169 0.26310709 0.72400004 4288257432
-0.090097055 0.26310709 0.72400004 4286744449
-0.08872994 0.26310709 0.72400004 4286612864
-0.087242164 0.26274368 0.72300005 4286546816
-0.085758165 0.2623803 0.72200006 4283849304
-0.084394827 0.2623803 0.72200006 4282993994
-0.08314649 0.26274368 0.72300005 4283323215
-0.081894375 0.26310709 0.72400004 4283849560
-0.080638491 0.2634705 0.72500002 4283520594
-0.079269491 0.2634705 0.72500002 4283849559
-0.077793032 0.26310709 0.72400004 4284770147
-0.076214798 0.2623803 0.72200006 4286546302
-0.074747793 0.26201686 0.72100002 4290757056
-0.073386341 0.26201686 0.72100002 4287598994
-0.072124787 0.2623803 0.72200006 4281348403
-0.07076145 0.2623803 0.72200006 4281348403
-0.069301993 0.26201686 0.72100002 4281611575
-0.067940548 0.26201686 0.72100002 4287401359
-0.066486754 0.26165345 0.72000003 4286085499
-0.065127194 0.26165345 0.72000003 4282071869
-0.064033329 0.26274368 0.72300005 4281611318
-0.06275478 0.26310709 0.72400004 4283585619
-0.061302874 0.26274368 0.72300005 4283782998
-0.05985475 0.2623803 0.72200006 4289967538
-0.058491413 0.2623803 0.72200006 4288125334
-0.057128076 0.2623803 0.72200006 4286546303
-0.055919211 0.26310709 0.72400004 4286217339
-0.054702796 0.26383391 0.72600001 4286677636
-0.053405363 0.26419732 0.72700006 4282269505
-0.051961012 0.26383391 0.72600001 4280953899
-0.050520439 0.2634705 0.72500002 4285888374
-0.049083643 0.26310709 0.72400004 4286941060
-0.047650617 0.26274368 0.72300005 4290297273
-0.046285391 0.26274368 0.72300005 4288060311
-0.044920165 0.26274368 0.72300005 4287270795
-0.043554939 0.26274368 0.72300005 4286152314
-0.04224807 0.26310709 0.72400004 4284244317
-0.040880956 0.26310709 0.72400004 4283585617
-0.039513841 0.26310709 0.72400004 4284244063
-0.038146731 0.26310709 0.72400004 4284638821
-0.036525611 0.26129007 0.71900004 4286349441
-0.03516794 0.26129007 0.71900004 4283586135
-0.03385729 0.26165345 0.72000003 4283191376
-0.032588001 0.2623803 0.72200006 4281612343
-0.031397656 0.26383391 0.72600001 4281941562
-0.029985402 0.2634705 0.72500002 4283454031
-0.028419046 0.26165345 0.72000003 4283782994
-0.027059484 0.26165345 0.72000003 4287335816
-0.025699925 0.26165345 0.72000003 4289375654
-0.024340363 0.26165345 0.72000003 4281809459
-0.023076557 0.26274368 0.72300005 4282270010
-0.021771388 0.2634705 0.72500002 4289836205
-0.02045867 0.26419732 0.72700006 4284967523
-0.019138398 0.26492414 0.72900003 4281875766
-0.017737478 0.26456073 0.72800004 4280954664
-0.016317856 0.26383391 0.72600001 4280757286
-0.014926379 0.2634705 0.72500002 4288257688
-0.013557376 0.2634705 0.72500002 4286086518
-0.012188374 0.2634705 0.72500002 4281349165
-0.010804447 0.26310709 0.72400004 4282796354
-0.0094634034 0.26383391 0.72600001 4288915103
-0.0080925133 0.26383391 0.72600001 4285757039
-0.0067216228 0.26383391 0.72600001 4283322698
-0.0053581023 0.26419732 0.72700006 4287862415
-0.0039798417 0.26383391 0.72600001 4287993488
-0.0026089512 0.26383391 0.72600001 4286151284
-0.001236355 0.2634705 0.72500002 4286743422
0.00013246421 0.26310709 0.72400004 4287598731
0.0014995782 0.26310709 0.72400004 4286348153
0.0028746112 0.26383391 0.72600001 4282598209
0.0042571975 0.26456073 0.72800004 4281545521
0.0056396006 0.26492414 0.72900003 4283979862
