# .PCD v0.7 - Point Cloud Data file format
VERSION 0.7
FIELDS x y z rgba
SIZE 4 4 4 4
TYPE F F F U
COUNT 1 1 1 1
WIDTH 1055
HEIGHT 1
VIEWPOINT 0 0 0 1 0 0 0
POINTS 1055
DATA ascii
-0.087360442 0.25573352 0.79900002 4294047482
-0.085959151 0.2560536 0.80000001 4293915638
-0.084554091 0.25637367 0.80100006 4293520879
-0.082937904 0.2560536 0.80000001 4293060327
-0.081427284 0.2560536 0.80000001 4292007639
-0.079916663 0.2560536 0.80000001 4290691520
-0.078406036 0.2560536 0.80000001 4289441196
-0.076991528 0.25637367 0.80100006 4288191897
-0.075479023 0.25637367 0.80100006 4287270795
-0.074058853 0.25669372 0.80200005 4286876036
-0.072634913 0.2570138 0.80300003 4287073415
-0.071118623 0.2570138 0.80300003 4287205259
-0.069602333 0.2570138 0.80300003 4287139724
-0.068255626 0.25765392 0.80500007 4287007882
-0.066735558 0.25765392 0.80500007 4287007882
-0.065377526 0.25829405 0.80700004 4286810504
-0.063932806 0.25861412 0.80800003 4286810505
-0.062407076 0.25861412 0.80800003 4286810505
-0.060956694 0.2589342 0.80900002 4286876299
-0.059502535 0.25925428 0.81000006 4286876299
-0.058044601 0.25957435 0.81100005 4286744713
-0.05658289 0.2598944 0.81200004 4286744713
-0.055117406 0.26021448 0.81300002 4286810250
-0.053582232 0.26021448 0.81300002 4286810506
-0.051983044 0.2598944 0.81200004 4286744713
-0.050449759 0.2598944 0.81200004 4286744712
-0.048916478 0.2598944 0.81200004 4286678919
-0.047499903 0.26053452 0.81400001 4286810505
-0.046019308 0.2608546 0.81500006 4286876298
-0.044589516 0.26149473 0.81700003 4286744712
-0.043046791 0.26149473 0.81700003 4286942091
-0.041758072 0.26309505 0.82200003 4285231473
-0.040303729 0.2637352 0.82400006 4284310371
-0.039123978 0.26629573 0.83200002 4284441957
-0.038229968 0.27109674 0.84700006 4284507750
-0.036630597 0.27109674 0.84700006 4284507750
-0.17686169 0.26947328 0.83700001 4285033065
-0.1752812 0.26947328 0.83700001 4285098859
-0.16872005 0.26174647 0.81300002 4285822328
-0.16718487 0.26174647 0.81300002 4293256938
-0.16401969 0.25917086 0.80500007 4294573054
-0.16149032 0.25756109 0.80000001 4294441469
-0.15977973 0.25723913 0.79900002 4294244348
-0.15827098 0.25723913 0.79900002 4294113275
-0.15715465 0.25788307 0.80100006 4294113275
-0.15583643 0.258205 0.80200005 4294244861
-0.15451446 0.25852695 0.80300003 4294310654
-0.15280764 0.258205 0.80200005 4294245374
-0.15129323 0.258205 0.80200005 4294245631
-0.14959209 0.25788307 0.80100006 4294377215
-0.14789471 0.25756109 0.80000001 4294311423
-0.1462011 0.25723913 0.79900002 4294311423
-0.14451128 0.25691721 0.79800004 4294377215
-0.14300443 0.25691721 0.79800004 4294376959
-0.14167491 0.25723913 0.79900002 4294376959
-0.14016616 0.25723913 0.79900002 4294311423
-0.13865744 0.25723913 0.79900002 4294311423
-0.13714869 0.25723913 0.79900002 4294376959
-0.13563997 0.25723913 0.79900002 4294508031
-0.13413124 0.25723913 0.79900002 4294508031
-0.13245651 0.25691721 0.79800004 4294442239
-0.13078555 0.25659522 0.79700005 4294508031
-0.1291184 0.2562733 0.79600006 4294573823
-0.12777564 0.25659522 0.79700005 4294442495
-0.12627068 0.25659522 0.79700005 4294311423
-0.12492227 0.25691721 0.79800004 4294245631
-0.12341543 0.25691721 0.79800004 4294311423
-0.12175581 0.25659522 0.79700005 4294311423
-0.12040173 0.25691721 0.79800004 4294311423
-0.11904387 0.25723913 0.79900002 4294311423
-0.11753514 0.25723913 0.79900002 4294245631
-0.1160264 0.25723913 0.79900002 4294245631
-0.11437435 0.25691721 0.79800004 4294311423
-0.11272606 0.25659522 0.79700005 4294443007
-0.11108155 0.2562733 0.79600006 4294443007
-0.10971615 0.25659522 0.79700005 4294443007
-0.10821119 0.25659522 0.79700005 4294574079
-0.10684011 0.25691721 0.79800004 4294573823
-0.10546526 0.25723913 0.79900002 4294573823
-0.10382642 0.25691721 0.79800004 4294508031
-0.10206313 0.2562733 0.79600006 4294376446
-0.10043373 0.25595134 0.79500002 4294376447
-0.098932542 0.25595134 0.79500002 4294376447
-0.097553916 0.2562733 0.79600006 4294442239
-0.096171521 0.25659522 0.79700005 4294441983
-0.09478534 0.25691721 0.79800004 4294507519
-0.09327849 0.25691721 0.79800004 4294376190
-0.09165664 0.25659522 0.79700005 4294573567
-0.090151682 0.25659522 0.79700005 4294178811
-0.088757955 0.25691721 0.79800004 4293981431
-0.087360442 0.25723913 0.79900002 4292797157
-0.085851707 0.25723913 0.79900002 4291547090
-0.084448531 0.25756109 0.80000001 4290033851
-0.082937904 0.25756109 0.80000001 4288586405
-0.081325501 0.25723913 0.79900002 4287533715
-0.079916663 0.25756109 0.80000001 4286875526
-0.078504041 0.25788307 0.80100006 4286875526
-0.077087656 0.258205 0.80200005 4287073160
-0.075573258 0.258205 0.80200005 4287270795
-0.074151196 0.25852695 0.80300003 4286941830
-0.072634913 0.25852695 0.80300003 4287007879
-0.071207188 0.25884888 0.80400002 4286942087
-0.069775686 0.25917086 0.80500007 4287007880
-0.068340413 0.25949281 0.80600005 4286942087
-0.066901363 0.25981474 0.80700004 4287007882
-0.065458536 0.26013672 0.80800003 4287007882
-0.063932806 0.26013672 0.80800003 4286942091
-0.062484313 0.26045865 0.80900002 4286942091
-0.061032042 0.2607806 0.81000006 4287007884
-0.059575997 0.26110256 0.81100005 4286810505
-0.058116172 0.26142451 0.81200004 4286678919
-0.056652576 0.26174647 0.81300002 4286810505
-0.055185199 0.26206839 0.81400001 4286613126
-0.05364814 0.26206839 0.81400001 4286678919
-0.052111078 0.26206839 0.81400001 4286744712
-0.050511893 0.26174647 0.81300002 4286744712
-0.048976719 0.26174647 0.81300002 4286810505
-0.047558255 0.26239038 0.81500006 4286876298
-0.046019308 0.26239038 0.81500006 4286941578
-0.04453494 0.26271233 0.81600004 4286678662
-0.043099482 0.26335621 0.81800002 4287007628
-0.04180887 0.26496598 0.82300001 4285428852
-0.040352643 0.26560986 0.82500005 4284376164
-0.039171003 0.2681855 0.83300006 4284376164
-0.038229968 0.2726928 0.84700006 4284310370
-0.036630597 0.2726928 0.84700006 4284441955
-0.0351553 0.27365866 0.85000002 4284376162
-0.177073 0.27137434 0.83800006 4285230188
-0.17549062 0.27137434 0.83800006 4285164397
-0.16872005 0.26327845 0.81300002 4284638053
-0.16718487 0.26327845 0.81300002 4288914600
-0.16381595 0.26036394 0.80400002 4294507004
-0.16108659 0.25842091 0.79800004 4294375420
-0.15937977 0.25809708 0.79700005 4294441470
-0.15787481 0.25809708 0.79700005 4294244091
-0.15656605 0.25842091 0.79800004 4294178812
-0.1550592 0.25842091 0.79800004 4294244861
-0.15355235 0.25842091 0.79800004 4294310654
-0.15204552 0.25842091 0.79800004 4294376447
-0.15053867 0.25842091 0.79800004 4294376446
-0.14884506 0.25809708 0.79700005 4294376446
-0.1473401 0.25809708 0.79700005 4294442495
-0.14565216 0.25777325 0.79600006 4294442495
-0.143968 0.25744942 0.79500002 4294376703
-0.14246681 0.25744942 0.79500002 4294376703
-0.14096564 0.25744942 0.79500002 4294442495
-0.13946445 0.25744942 0.79500002 4294442495
-0.13796327 0.25744942 0.79500002 4294376703
-0.13646209 0.25744942 0.79500002 4294442495
-0.13513067 0.25777325 0.79600006 4294508031
-0.13362761 0.25777325 0.79600006 4294508031
-0.13195854 0.25744942 0.79500002 4294508031
-0.13029328 0.25712556 0.79400003 4294442239
-0.12879398 0.25712556 0.79400003 4294508287
-0.12729469 0.25712556 0.79400003 4294443007
-0.12579539 0.25712556 0.79400003 4294311423
-0.12445264 0.25744942 0.79500002 4294311423
-0.12264214 0.25680175 0.79300004 4294311423
-0.12129751 0.25712556 0.79400003 4294311423
-0.11994909 0.25744942 0.79500002 4294245631
-0.1185969 0.25777325 0.79600006 4294179838
-0.11709382 0.25777325 0.79600006 4294245631
-0.11544555 0.25744942 0.79500002 4294311423
-0.11394436 0.25744942 0.79500002 4294311423
-0.11216031 0.25680175 0.79300004 4294442751
-0.11052335 0.25647789 0.79200006 4294574079
-0.1091655 0.25680175 0.79300004 4294508287
-0.10780387 0.25712556 0.79400003 4294508287
-0.10643845 0.25744942 0.79500002 4294508031
-0.10506926 0.25777325 0.79600006 4294508031
-0.1035662 0.25777325 0.79600006 4294442239
-0.10180669 0.25712556 0.79400003 4294508031
-0.10018107 0.25680175 0.79300004 4294442239
-0.098683663 0.25680175 0.79300004 4294376191
-0.097308807 0.25712556 0.79400003 4294507519
-0.096050844 0.25777325 0.79600006 4294375677
-0.094666563 0.25809708 0.79700005 4294112248
-0.093161605 0.25809708 0.79700005 4293454318
-0.091541633 0.25777325 0.79600006 4292072921
-0.090038568 0.25777325 0.79600006 4289968058
-0.088646725 0.25809708 0.79700005 4288915370
-0.087141767 0.25809708 0.79700005 4287402131
-0.085744254 0.25842091 0.79800004 4287073165
-0.084342971 0.25874475 0.79900002 4286875786
-0.082834236 0.25874475 0.79900002 4286744200
-0.081325501 0.25874475 0.79900002 4287204493
-0.079916663 0.25906861 0.80000001 4287007371
-0.078504041 0.25939244 0.80100006 4286810247
-0.077087656 0.25971627 0.80200005 4287007624
-0.075573258 0.25971627 0.80200005 4287205259
-0.074151196 0.2600401 0.80300003 4286876294
-0.072725363 0.26036394 0.80400002 4286810757
-0.071207188 0.26036394 0.80400002 4286876294
-0.069862366 0.26101163 0.80600005 4286942087
-0.068509996 0.26165929 0.80800003 4286876294
-0.066984266 0.26165929 0.80800003 4286942088
-0.065539546 0.2619831 0.80900002 4287007882
-0.064011931 0.2619831 0.80900002 4286876296
-0.062561549 0.26230696 0.81000006 4286942089
-0.06110739 0.26263079 0.81100005 4286942089
-0.059722915 0.26327845 0.81300002 4286810503
-0.058187746 0.26327845 0.81300002 4286678918
-0.056722257 0.26360229 0.81400001 4286613125
-0.055185199 0.26360229 0.81400001 4286810504
-0.05364814 0.26360229 0.81400001 4286810505
-0.052111078 0.26360229 0.81400001 4286876298
-0.05057402 0.26360229 0.81400001 4286876298
-0.049036961 0.26360229 0.81400001 4286810505
-0.047558255 0.26392612 0.81500006 4286744712
-0.04613224 0.26457378 0.81700003 4286678406
-0.044589516 0.26457378 0.81700003 4286678406
-0.043152168 0.26522145 0.81900007 4286875785
-0.041859671 0.26684067 0.82400006 4285362801
-0.040352643 0.26716447 0.82500005 4284376163
-0.039171003 0.26975518 0.83300006 4284244577
-0.038049422 0.27299353 0.84300005 4284244576
-0.036630597 0.27428886 0.84700006 4284507748
-0.035031222 0.27428886 0.84700006 4284441955
-0.17622778 0.27165058 0.83400005 4285033064
-0.1752812 0.27262771 0.83700001 4285098858
-0.17141791 0.26904482 0.82600003 4285164652
-0.16985819 0.26904482 0.82600003 4285230191
-0.16340844 0.26122752 0.80200005 4288585378
-0.16088472 0.25959894 0.79700005 4290361533
-0.15917979 0.25927323 0.79600006 4292467166
-0.15747863 0.25894749 0.79500002 4293717490
-0.15617366 0.25927323 0.79600006 4294112504
-0.15467058 0.25927323 0.79600006 4294310140
-0.1529751 0.25894749 0.79500002 4294507774
-0.15128338 0.25862175 0.79400003 4294507774
-0.14959544 0.25829607 0.79300004 4294244605
-0.14809804 0.25829607 0.79300004 4294441982
-0.14660063 0.25829607 0.79300004 4294441983
-0.14492024 0.25797033 0.79200006 4294507775
-0.14342472 0.25797033 0.79200006 4294442239
-0.14175001 0.25764459 0.79100001 4294508031
-0.14025638 0.25764459 0.79100001 4294442239
-0.13876276 0.25764459 0.79100001 4294508031
-0.13726912 0.25764459 0.79100001 4294508031
-0.13594714 0.25797033 0.79200006 4294442239
-0.13462138 0.25829607 0.79300004 4294508031
-0.13312398 0.25829607 0.79300004 4294508031
-0.13146058 0.25797033 0.79200006 4294508031
-0.12980098 0.25764459 0.79100001 4294442239
-0.12830736 0.25764459 0.79100001 4294442239
-0.12681372 0.25764459 0.79100001 4294574079
-0.12532009 0.25764459 0.79100001 4294442751
-0.12382647 0.25764459 0.79100001 4294311423
-0.12217817 0.25731888 0.79000002 4294311423
-0.12068643 0.25731888 0.79000002 4294311423
-0.11934557 0.25764459 0.79100001 4294245631
-0.11800094 0.25797033 0.79200006 4294245631
-0.11635831 0.25764459 0.79100001 4294311423
-0.11486468 0.25764459 0.79100001 4294245631
-0.11337106 0.25764459 0.79100001 4294245374
-0.11173599 0.25731888 0.79000002 4294442495
-0.1101047 0.25699317 0.78900003 4294573823
-0.10875251 0.25731888 0.79000002 4294508031
-0.10726077 0.25731888 0.79000002 4294508031
-0.10590291 0.25764459 0.79100001 4294442239
-0.10454129 0.25797033 0.79200006 4294442239
-0.10304577 0.25797033 0.79200006 4294573823
-0.10155025 0.25797033 0.79200006 4294639359
-0.10005473 0.25797033 0.79200006 4294441726
-0.098683663 0.25829607 0.79300004 4293783796
-0.097308807 0.25862175 0.79400003 4293125609
-0.095930181 0.25894749 0.79500002 4291151562
-0.094547778 0.25927323 0.79600006 4289506737
-0.093044706 0.25927323 0.79600006 4288454049
-0.091426633 0.25894749 0.79500002 4287467154
-0.089925453 0.25894749 0.79500002 4287138702
-0.088535495 0.25927323 0.79600006 4287007373
-0.087032422 0.25927323 0.79600006 4286941579
-0.085744254 0.25992465 0.79800004 4286876042
-0.084342971 0.26025036 0.79900002 4286876042
-0.082834236 0.26025036 0.79900002 4286810249
-0.081325501 0.26025036 0.79900002 4286941578
-0.079916663 0.2605761 0.80000001 4286810248
-0.078504041 0.26090184 0.80100006 4286744710
-0.077087656 0.26122752 0.80200005 4286810502
-0.075573258 0.26122752 0.80200005 4287007878
-0.074151196 0.26155326 0.80300003 4286876548
-0.072725363 0.26187897 0.80400002 4286876548
-0.071295753 0.26220471 0.80500007 4286810756
-0.069949046 0.26285613 0.80700004 4286810501
-0.068509996 0.26318187 0.80800003 4287007880
-0.066984266 0.26318187 0.80800003 4287007882
-0.065539546 0.26350757 0.80900002 4286876296
-0.064011931 0.26350757 0.80900002 4286876296
-0.062561549 0.26383328 0.81000006 4286942089
-0.06110739 0.26415902 0.81100005 4286876296
-0.059722915 0.26481044 0.81300002 4286810503
-0.058187746 0.26481044 0.81300002 4286876296
-0.056652576 0.26481044 0.81300002 4286876296
-0.055117406 0.26481044 0.81300002 4286810503
-0.053582232 0.26481044 0.81300002 4286744711
-0.052111078 0.26513615 0.81400001 4286744712
-0.05057402 0.26513615 0.81400001 4286744712
-0.049097203 0.26546189 0.81500006 4286678919
-0.047616612 0.26578763 0.81600004 4286678919
-0.04613224 0.26611331 0.81700003 4286612613
-0.044589516 0.26611331 0.81700003 4286612869
-0.043204855 0.2670905 0.82000005 4286678662
-0.04180887 0.26806766 0.82300001 4285363059
-0.040352643 0.26871908 0.82500005 4284441957
-0.039123978 0.27099913 0.83200002 4284441956
-0.037959155 0.27393061 0.84100002 4284310370
-0.036544099 0.27523348 0.84500003 4284507750
-0.17622778 0.27322215 0.83400005 4284835684
-0.17423412 0.27256691 0.83200002 4285098857
-0.17162544 0.27092889 0.82700002 4285164652
-0.17006382 0.27092889 0.82700002 4285230190
-0.16361219 0.26306641 0.80300003 4285690741
-0.16108659 0.26142839 0.79800004 4285493362
-0.15917979 0.26077318 0.79600006 4285756278
-0.15767673 0.26077318 0.79600006 4286414466
-0.15617366 0.26077318 0.79600006 4287138189
-0.15467058 0.26077318 0.79600006 4289506737
-0.1529751 0.26044556 0.79500002 4291283149
-0.15128338 0.26011795 0.79400003 4292862181
-0.14959544 0.25979036 0.79300004 4294178040
-0.14791127 0.25946274 0.79200006 4294507006
-0.14641576 0.25946274 0.79200006 4294573055
-0.14492024 0.25946274 0.79200006 4294770431
-0.14324364 0.25913513 0.79100001 4294573311
-0.14175001 0.25913513 0.79100001 4294573311
-0.14025638 0.25913513 0.79100001 4294639359
-0.13841189 0.25847992 0.78900003 4294508031
-0.13692205 0.25847992 0.78900003 4294573823
-0.13577549 0.25913513 0.79100001 4294376447
-0.13445161 0.25946274 0.79200006 4294442239
-0.1329561 0.25946274 0.79200006 4294508031
-0.13129461 0.25913513 0.79100001 4294442239
-0.12914458 0.25782472 0.78700006 4294376446
-0.1276585 0.25782472 0.78700006 4294508031
-0.12617242 0.25782472 0.78700006 4294573823
-0.12484479 0.25815234 0.78800005 4294508031
-0.12335683 0.25815234 0.78800005 4294442751
-0.12186886 0.25815234 0.78800005 4294311423
-0.12022813 0.25782472 0.78700006 4294245631
-0.11874206 0.25782472 0.78700006 4294311423
-0.11725599 0.25782472 0.78700006 4294245631
-0.11576991 0.25782472 0.78700006 4294311423
-0.11442904 0.25815234 0.78800005 4294376703
-0.11308441 0.25847992 0.78900003 4294376703
-0.11159456 0.25847992 0.78900003 4294573567
-0.1101047 0.25847992 0.78900003 4294573567
-0.10861485 0.25847992 0.78900003 4294639359
-0.107125 0.25847992 0.78900003 4294639359
-0.10563514 0.25847992 0.78900003 4294441983
-0.10427729 0.25880754 0.79000002 4293981174
-0.10291565 0.25913513 0.79100001 4292994280
-0.10142203 0.25913513 0.79100001 4291349456
-0.10005473 0.25946274 0.79200006 4289967545
-0.098683663 0.25979036 0.79300004 4288322463
-0.097431362 0.26044556 0.79500002 4287532946
-0.095930181 0.26044556 0.79500002 4286940809
-0.094547778 0.26077318 0.79600006 4287072138
-0.093161605 0.26110077 0.79700005 4287401359
-0.091541633 0.26077318 0.79600006 4287467152
-0.090038568 0.26077318 0.79600006 4287401872
-0.088757955 0.26142839 0.79800004 4287138957
-0.087251104 0.26142839 0.79800004 4286876298
-0.085851707 0.26175597 0.79900002 4286744712
-0.084448531 0.26208359 0.80000001 4286876298
-0.082937904 0.26208359 0.80000001 4286744712
-0.081427284 0.26208359 0.80000001 4286810504
-0.080116458 0.26273879 0.80200005 4286744710
-0.078602053 0.26273879 0.80200005 4286810503
-0.077183776 0.26306641 0.80300003 4286810501
-0.075667486 0.26306641 0.80300003 4286876294
-0.074243538 0.263394 0.80400002 4286876293
-0.072815813 0.26372162 0.80500007 4286744707
-0.071384318 0.26404923 0.80600005 4286876293
-0.070035726 0.26470444 0.80800003 4287007880
-0.068594784 0.26503202 0.80900002 4286942087
-0.067067161 0.26503202 0.80900002 4286942088
-0.065620556 0.26535964 0.81000006 4287007882
-0.064091049 0.26535964 0.81000006 4287073675
-0.062561549 0.26535964 0.81000006 4287073675
-0.06110739 0.26568726 0.81100005 4286942089
-0.059722915 0.26634246 0.81300002 4286876296
-0.058187746 0.26634246 0.81300002 4287007882
-0.056722257 0.26667005 0.81400001 4286810503
-0.055185199 0.26667005 0.81400001 4286613124
-0.05364814 0.26667005 0.81400001 4286876296
-0.052175097 0.26699767 0.81500006 4286613124
-0.05069828 0.26732528 0.81600004 4286876296
-0.049157448 0.26732528 0.81600004 4286744712
-0.047674961 0.26765287 0.81700003 4286678919
-0.046188705 0.26798049 0.81800002 4286678919
-0.044644095 0.26798049 0.81800002 4286481540
-0.043204855 0.26863569 0.82000005 4286547333
-0.041859671 0.2699461 0.82400006 4285428852
-0.040352643 0.27027369 0.82500005 4284376164
-0.039171003 0.27289453 0.83300006 4284244578
-0.03800429 0.27584296 0.84200007 4284375909
-0.17622778 0.27479371 0.83400005 4284836196
-0.17141791 0.27215782 0.82600003 4285230444
-0.16985819 0.27215782 0.82600003 4285164652
-0.16381595 0.26490903 0.80400002 4285559155
-0.16128846 0.26326159 0.79900002 4285953913
-0.15937977 0.26260263 0.79700005 4285756535
-0.15767673 0.26227316 0.79600006 4285690743
-0.15636985 0.26260263 0.79700005 4285822329
-0.15486489 0.26260263 0.79700005 4285953915
-0.15316752 0.26227316 0.79600006 4285493365
-0.15128338 0.26161414 0.79400003 4285822329
-0.14940679 0.26095518 0.79200006 4287072397
-0.14753777 0.2602962 0.79000002 4287993243
-0.14604603 0.2602962 0.79000002 4290032569
-0.14437132 0.2599667 0.78900003 4291940822
-0.14270036 0.25963724 0.78800005 4293717489
-0.14121239 0.25963724 0.78800005 4294507005
-0.13972443 0.25963724 0.78800005 4294770431
-0.13823646 0.25963724 0.78800005 4294770431
-0.13657495 0.25930774 0.78700006 4294704639
-0.13508888 0.25930774 0.78700006 4294704383
-0.13360281 0.25930774 0.78700006 4294638847
-0.13194887 0.25897822 0.78600001 4294507519
-0.13029869 0.25864875 0.78500003 4294441983
-0.1288164 0.25864875 0.78500003 4294442239
-0.12717189 0.25831926 0.78400004 4294508031
-0.12569147 0.25831926 0.78400004 4294442239
-0.12436949 0.25864875 0.78500003 4294508031
-0.12273065 0.25831926 0.78400004 4294508031
-0.12140489 0.25864875 0.78500003 4294442239
-0.11976983 0.25831926 0.78400004 4294442239
-0.11828942 0.25831926 0.78400004 4294508031
-0.11666002 0.25798979 0.78300005 4294507775
-0.1153286 0.25831926 0.78400004 4294573311
-0.11413862 0.25897822 0.78600001 4294507775
-0.11279776 0.25930774 0.78700006 4294639103
-0.11145312 0.25963724 0.78800005 4294507262
-0.1101047 0.2599667 0.78900003 4294112247
-0.10847719 0.25963724 0.78800005 4293191660
-0.10698923 0.25963724 0.78800005 4291612628
-0.10550126 0.25963724 0.78800005 4289638838
-0.1041453 0.2599667 0.78900003 4288257441
-0.10278555 0.2602962 0.79000002 4287270545
-0.10142203 0.26062569 0.79100001 4286941580
-0.10005473 0.26095518 0.79200006 4287007373
-0.098683663 0.26128468 0.79300004 4287007115
-0.097308807 0.26161414 0.79400003 4287007115
-0.095930181 0.26194364 0.79500002 4287007114
-0.094547778 0.26227316 0.79600006 4287138700
-0.093161605 0.26260263 0.79700005 4287204750
-0.09165664 0.26260263 0.79700005 4287204750
-0.090151682 0.26260263 0.79700005 4287007628
-0.088757955 0.26293212 0.79800004 4286876298
-0.087251104 0.26293212 0.79800004 4286810505
-0.085851707 0.26326159 0.79900002 4286613126
-0.084448531 0.26359108 0.80000001 4286678918
-0.082937904 0.26359108 0.80000001 4286744711
-0.081529066 0.26392061 0.80100006 4286678917
-0.080216348 0.26457956 0.80300003 4286678917
-0.078700066 0.26457956 0.80300003 4286613124
-0.077279896 0.26490903 0.80400002 4286678917
-0.075761713 0.26490903 0.80400002 4286876295
-0.074335881 0.26523852 0.80500007 4286744710
-0.072906271 0.26556805 0.80600005 4286678916
-0.071384318 0.26556805 0.80600005 4286810502
-0.070035726 0.26622701 0.80800003 4286942088
-0.068594784 0.26655647 0.80900002 4286942089
-0.067067161 0.26655647 0.80900002 4286876296
-0.065620556 0.26688597 0.81000006 4286942089
-0.064091049 0.26688597 0.81000006 4287139468
-0.062638782 0.26721549 0.81100005 4286942089
-0.06110739 0.26721549 0.81100005 4287007882
-0.059649456 0.26754496 0.81200004 4287007882
-0.058116172 0.26754496 0.81200004 4286942089
-0.056652576 0.26787445 0.81300002 4286942089
-0.055185199 0.26820391 0.81400001 4286876296
-0.05364814 0.26820391 0.81400001 4286810503
-0.052239116 0.26886293 0.81600004 4286678917
-0.050760411 0.2691924 0.81700003 4286810503
-0.049277931 0.26952189 0.81800002 4286678919
-0.047733318 0.26952189 0.81800002 4286613126
-0.046245169 0.26985136 0.81900007 4286547331
-0.044698671 0.26985136 0.81900007 4286613125
-0.043204855 0.27018085 0.82000005 4286678917
-0.04180887 0.27116933 0.82300001 4285626231
-0.040352643 0.27182829 0.82500005 4284441957
-0.039171003 0.27446422 0.83300006 4284376164
-0.17121038 0.2733829 0.82500005 4285230443
-0.16965255 0.2733829 0.82500005 4284967273
-0.16381595 0.26642406 0.80400002 4285493617
-0.16149032 0.2650986 0.80000001 4285888632
-0.15957974 0.26443586 0.79800004 4285888889
-0.15787481 0.26410446 0.79700005 4285823097
-0.15636985 0.26410446 0.79700005 4285757048
-0.15486489 0.26410446 0.79700005 4285822841
-0.15316752 0.26377311 0.79600006 4285888634
-0.15128338 0.26311034 0.79400003 4285954172
-0.14940679 0.2624476 0.79200006 4286019708
-0.14772452 0.26211622 0.79100001 4286019195
-0.14623089 0.26211622 0.79100001 4285427058
-0.14455429 0.26178485 0.79000002 4285953403
-0.14288145 0.26145348 0.78900003 4286940298
-0.14139161 0.26145348 0.78900003 4287664021
-0.13972443 0.26112211 0.78800005 4289966519
-0.13823646 0.26112211 0.78800005 4291611345
-0.13657495 0.26079074 0.78700006 4293388011
-0.13508888 0.26079074 0.78700006 4294177784
-0.13360281 0.26079074 0.78700006 4294704383
-0.13194887 0.26045936 0.78600001 4294770175
-0.13029869 0.26012799 0.78500003 4294770175
-0.1288164 0.26012799 0.78500003 4294638847
-0.12717189 0.25979662 0.78400004 4294638847
-0.12569147 0.25979662 0.78400004 4294573311
-0.12421107 0.25979662 0.78400004 4294441983
-0.12273065 0.25979662 0.78400004 4294507519
-0.12140489 0.26012799 0.78500003 4294573567
-0.11976983 0.25979662 0.78400004 4294507263
-0.11828942 0.25979662 0.78400004 4294770431
-0.11680901 0.25979662 0.78400004 4294704639
-0.1153286 0.25979662 0.78400004 4294309626
-0.11413862 0.26045936 0.78600001 4293454574
-0.11294108 0.26112211 0.78800005 4291941079
-0.11159456 0.26145348 0.78900003 4290362046
-0.11024425 0.26178485 0.79000002 4288848807
-0.10861485 0.26145348 0.78900003 4287532948
-0.107125 0.26145348 0.78900003 4287072653
-0.10563514 0.26145348 0.78900003 4287204752
-0.10427729 0.26178485 0.79000002 4287006860
-0.10291565 0.26211622 0.79100001 4287007117
-0.10155025 0.2624476 0.79200006 4287138959
-0.10018107 0.262779 0.79300004 4286876043
-0.098683663 0.262779 0.79300004 4287007884
-0.097308807 0.26311034 0.79400003 4286942091
-0.096050844 0.26377311 0.79600006 4286876298
-0.094547778 0.26377311 0.79600006 4286876041
-0.09327849 0.26443586 0.79800004 4286876298
-0.091886647 0.2647672 0.79900002 4287073677
-0.090377912 0.2647672 0.79900002 4286942091
-0.088757955 0.26443586 0.79800004 4286810505
-0.087251104 0.26443586 0.79800004 4286744712
-0.085851707 0.2647672 0.79900002 4286547333
-0.084448531 0.2650986 0.80000001 4286810504
-0.082937904 0.2650986 0.80000001 4286678662
-0.081427284 0.2650986 0.80000001 4286810247
-0.080116458 0.26576132 0.80200005 4286744710
-0.078700066 0.26609272 0.80300003 4286547331
-0.077279896 0.26642406 0.80400002 4286678916
-0.075855948 0.26675546 0.80500007 4286942087
-0.074335881 0.26675546 0.80500007 4286744710
-0.072815813 0.26675546 0.80500007 4286678917
-0.071295753 0.26675546 0.80500007 4286744710
-0.069862366 0.26708683 0.80600005 4286942088
-0.068425208 0.26741821 0.80700004 4286942089
-0.066901363 0.26741821 0.80700004 4286876296
-0.065539546 0.26808095 0.80900002 4287007883
-0.064091049 0.26841232 0.81000006 4287007884
-0.062638782 0.26874369 0.81100005 4286876298
-0.061182737 0.26907507 0.81200004 4287007882
-0.059649456 0.26907507 0.81200004 4286942089
-0.058116172 0.26907507 0.81200004 4287007883
-0.05658289 0.26907507 0.81200004 4286942090
-0.055117406 0.26940644 0.81300002 4286942090
-0.05364814 0.26973781 0.81400001 4286810505
-0.052239116 0.27040058 0.81600004 4286613125
-0.050760411 0.27073193 0.81700003 4286678919
-0.049277931 0.2710633 0.81800002 4286481540
-0.047733318 0.2710633 0.81800002 4286678919
-0.046188705 0.2710633 0.81800002 4286349954
-0.044644095 0.2710633 0.81800002 4286481538
-0.043204855 0.27172604 0.82000005 4286744710
-0.041758072 0.27238879 0.82200003 4285692023
-0.040303729 0.27305156 0.82400006 4284310370
-0.039123978 0.27570251 0.83200002 4284244578
-0.17162544 0.27560404 0.82700002 4285164649
-0.16882999 0.27360451 0.82100004 4285099626
-0.16422345 0.26860565 0.80600005 4285560178
-0.16169219 0.26693937 0.80100006 4285823095
-0.15997969 0.26660609 0.80000001 4285757302
-0.1580729 0.26593959 0.79800004 4285757303
-0.15656605 0.26593959 0.79800004 4285757561
-0.15486489 0.26560631 0.79700005 4285757817
-0.15259025 0.26427329 0.79300004 4285625976
-0.15109284 0.26427329 0.79300004 4285888892
-0.14940679 0.26394004 0.79200006 4285888635
-0.14791127 0.26394004 0.79200006 4285954428
-0.14623089 0.26360676 0.79100001 4286085502
-0.14455429 0.26327351 0.79000002 4286216831
-0.14288145 0.26294026 0.78900003 4286282368
-0.14139161 0.26294026 0.78900003 4285690231
-0.13972443 0.26260701 0.78800005 4285558645
-0.13806103 0.26227373 0.78700006 4285624438
-0.13657495 0.26227373 0.78700006 4286084989
-0.13508888 0.26227373 0.78700006 4286940555
-0.13343306 0.26194048 0.78600001 4288388257
-0.13178098 0.26160723 0.78500003 4290230461
-0.1301327 0.26127395 0.78400004 4291677907
-0.1284882 0.26094073 0.78300005 4293717489
-0.12700967 0.26094073 0.78300005 4294375420
-0.12553115 0.26094073 0.78300005 4294572799
-0.12405263 0.26094073 0.78300005 4294770175
-0.12257411 0.26094073 0.78300005 4294507006
-0.12125024 0.26127395 0.78400004 4294112504
-0.11976983 0.26127395 0.78400004 4293256939
-0.11813854 0.26094073 0.78300005 4291940822
-0.11666002 0.26094073 0.78300005 4289703604
-0.1153286 0.26127395 0.78400004 4288453537
-0.11428383 0.26227373 0.78700006 4287466899
-0.11308441 0.26294026 0.78900003 4286940554
-0.11173599 0.26327351 0.79000002 4287138189
-0.11024425 0.26327351 0.79000002 4287138189
-0.10875251 0.26327351 0.79000002 4287072909
-0.10726077 0.26327351 0.79000002 4286809994
-0.10576903 0.26327351 0.79000002 4287073166
-0.10440928 0.26360676 0.79100001 4287073166
-0.10304577 0.26394004 0.79200006 4287007373
-0.10167847 0.26427329 0.79300004 4287073677
-0.1003074 0.26460654 0.79400003 4286876298
-0.098808102 0.26460654 0.79400003 4286810504
-0.097431362 0.26493981 0.79500002 4286810503
-0.096171521 0.26560631 0.79700005 4286810503
-0.094666563 0.26560631 0.79700005 4286744711
-0.093395382 0.26627281 0.79900002 4286810505
-0.091886647 0.26627281 0.79900002 4286810505
-0.090377912 0.26627281 0.79900002 4286744712
-0.088757955 0.26593959 0.79800004 4286613126
-0.087251104 0.26593959 0.79800004 4286613126
-0.085744254 0.26593959 0.79800004 4286481540
-0.084342971 0.26627281 0.79900002 4286613126
-0.082834236 0.26627281 0.79900002 4286613126
-0.081427284 0.26660609 0.80000001 4286678919
-0.080016553 0.26693937 0.80100006 4286744711
-0.078798071 0.26793912 0.80400002 4286547332
-0.077376008 0.26827237 0.80500007 4286678917
-0.075950176 0.26860565 0.80600005 4286876296
-0.074428223 0.26860565 0.80600005 4286744710
-0.072906271 0.26860565 0.80600005 4286547075
-0.071384318 0.26860565 0.80600005 4286941576
-0.069949046 0.2689389 0.80700004 4286876295
-0.068425208 0.2689389 0.80700004 4286876296
-0.066901363 0.2689389 0.80700004 4286942089
-0.065539546 0.2696054 0.80900002 4286942091
-0.064170174 0.27027193 0.81100005 4286876298
-0.062716022 0.27060518 0.81200004 4287073677
-0.061258089 0.27093843 0.81300002 4286876296
-0.059722915 0.27093843 0.81300002 4286810503
-0.058187746 0.27093843 0.81300002 4286876296
-0.056652576 0.27093843 0.81300002 4286810503
-0.055252992 0.27160496 0.81500006 4286744710
-0.053714044 0.27160496 0.81500006 4286613126
-0.052303135 0.27227145 0.81700003 4286481540
-0.050822545 0.27260473 0.81800002 4286481540
-0.049338173 0.27293795 0.81900007 4286415747
-0.047791671 0.27293795 0.81900007 4286678919
-0.046245169 0.27293795 0.81900007 4286481538
-0.044698671 0.27293795 0.81900007 4286547331
-0.043257549 0.27360451 0.82100004 4286744710
-0.04180887 0.27427101 0.82300001 4285560436
-0.040352643 0.27493751 0.82500005 4284310369
-0.039171003 0.2776036 0.83300006 4284244578
-0.17204048 0.27783272 0.82900006 4285230698
-0.16882999 0.27515158 0.82100004 4284836454
-0.16463095 0.27079472 0.80800003 4285494384
-0.16189404 0.26878387 0.80200005 4285757300
-0.16017967 0.26844874 0.80100006 4285757302
-0.1580729 0.2674433 0.79800004 4285691509
-0.15617366 0.26677305 0.79600006 4285560437
-0.15447627 0.26643789 0.79500002 4285757817
-0.15239783 0.26543245 0.79200006 4285757817
-0.15071177 0.26509729 0.79100001 4285626232
-0.14921816 0.26509729 0.79100001 4285823356
-0.14772452 0.26509729 0.79100001 4285823356
-0.14623089 0.26509729 0.79100001 4285757306
-0.14455429 0.26476216 0.79000002 4285823100
-0.14288145 0.26442701 0.78900003 4285888380
-0.14121239 0.26409188 0.78800005 4285953916
-0.13954711 0.26375675 0.78700006 4286151038
-0.13806103 0.26375675 0.78700006 4286085245
-0.13657495 0.26375675 0.78700006 4286019709
-0.13508888 0.26375675 0.78700006 4286085502
-0.13326329 0.26308647 0.78500003 4286282881
-0.13161312 0.26275131 0.78400004 4285822330
-0.12980072 0.26208103 0.78200006 4286019708
-0.12832409 0.26208103 0.78200006 4286875017
-0.12684746 0.26208103 0.78200006 4287730327
-0.12521051 0.26174587 0.78100002 4289704117
-0.12373577 0.26174587 0.78100002 4291019977
-0.12241756 0.26208103 0.78200006 4290691012
-0.12109558 0.26241618 0.78300005 4288914344
-0.11961706 0.26241618 0.78300005 4287598228
-0.11813854 0.26241618 0.78300005 4286808712
-0.11680901 0.26275131 0.78400004 4286940041
-0.1153286 0.26275131 0.78400004 4287203213
-0.11428383 0.26375675 0.78700006 4287269518
-0.11308441 0.26442701 0.78900003 4287269775
-0.11159456 0.26442701 0.78900003 4287138445
-0.11024425 0.26476216 0.79000002 4286941578
-0.10875251 0.26476216 0.79000002 4286810249
-0.10739654 0.26509729 0.79100001 4286810249
-0.10590291 0.26509729 0.79100001 4286876298
-0.10440928 0.26509729 0.79100001 4286876299
-0.10291565 0.26509729 0.79100001 4286810506
-0.10155025 0.26543245 0.79200006 4287007884
-0.10018107 0.2657676 0.79300004 4286876297
-0.098808102 0.26610273 0.79400003 4286810503
-0.097431362 0.26643789 0.79500002 4286810503
-0.096171521 0.26710814 0.79700005 4286810503
-0.094666563 0.26710814 0.79700005 4286876296
-0.09327849 0.2674433 0.79800004 4286942089
-0.091886647 0.26777843 0.79900002 4286942091
-0.090377912 0.26777843 0.79900002 4286942091
-0.088757955 0.2674433 0.79800004 4286678919
-0.087251104 0.2674433 0.79800004 4286547333
-0.085744254 0.2674433 0.79800004 4286547333
-0.084237412 0.2674433 0.79800004 4286678919
-0.082834236 0.26777843 0.79900002 4286678919
-0.081529066 0.26844874 0.80100006 4286810505
-0.080016553 0.26844874 0.80100006 4286678919
-0.078798071 0.26945415 0.80400002 4286613126
-0.077472128 0.27012447 0.80600005 4286547333
-0.07604441 0.27045956 0.80700004 4286678917
-0.074520573 0.27045956 0.80700004 4286744197
-0.072906271 0.27012447 0.80600005 4286678404
-0.071384318 0.27012447 0.80600005 4287007369
-0.069862366 0.27012447 0.80600005 4287007369
-0.068425208 0.27045956 0.80700004 4286875783
-0.066901363 0.27045956 0.80700004 4286876298
-0.065539546 0.27112985 0.80900002 4286876298
-0.064170174 0.27180016 0.81100005 4286810505
-0.062716022 0.27213529 0.81200004 4286876298
-0.061258089 0.27247044 0.81300002 4286810504
-0.059722915 0.27247044 0.81300002 4286744710
-0.058259316 0.27280557 0.81400001 4286810503
-0.056722257 0.27280557 0.81400001 4286613124
-0.055252992 0.27314073 0.81500006 4286613126
-0.053779952 0.27347586 0.81600004 4286678919
-0.052367155 0.27414614 0.81800002 4286678919
-0.050884672 0.27448127 0.81900007 4286415747
-0.049338173 0.27448127 0.81900007 4286415747
-0.047791671 0.27448127 0.81900007 4286613126
-0.046245169 0.27448127 0.81900007 4286678917
-0.044698671 0.27448127 0.81900007 4286547331
-0.043257549 0.27515158 0.82100004 4286613124
-0.04180887 0.27582186 0.82300001 4285560436
-0.040352643 0.27649212 0.82500005 4284441955
-0.038935881 0.27749756 0.82800007 4284376164
-0.16965255 0.27804673 0.82500005 4285033063
-0.16442719 0.27198026 0.80700004 4285362029
-0.16189404 0.27029514 0.80200005 4285757045
-0.16017967 0.26995814 0.80100006 4285625716
-0.1580729 0.26894704 0.79800004 4285625716
-0.15617366 0.268273 0.79600006 4285625716
-0.15447627 0.26793596 0.79500002 4285757815
-0.15239783 0.26692486 0.79200006 4285757816
-0.1509023 0.26692486 0.79200006 4285757817
-0.14940679 0.26692486 0.79200006 4285757817
-0.14772452 0.26658782 0.79100001 4285626231
-0.14623089 0.26658782 0.79100001 4285626231
-0.14473727 0.26658782 0.79100001 4285823611
-0.14306255 0.26625082 0.79000002 4285691770
-0.14139161 0.26591378 0.78900003 4285691514
-0.13972443 0.26557678 0.78800005 4285823100
-0.13806103 0.26523975 0.78700006 4285954429
-0.13657495 0.26523975 0.78700006 4285888892
-0.13508888 0.26523975 0.78700006 4286151551
-0.13360281 0.26523975 0.78700006 4286217087
-0.13178098 0.26456571 0.78500003 4286348673
-0.1301327 0.26422867 0.78400004 4286414466
-0.1284882 0.26389164 0.78300005 4286480259
-0.12700967 0.26389164 0.78300005 4286677639
-0.12537083 0.2635546 0.78200006 4286743432
-0.12389419 0.2635546 0.78200006 4286940811
-0.12257411 0.26389164 0.78300005 4287138189
-0.12125024 0.26422867 0.78400004 4287137933
-0.11976983 0.26422867 0.78400004 4287203470
-0.11844029 0.26456571 0.78500003 4287203469
-0.116958 0.26456571 0.78500003 4287137676
-0.1156228 0.26490271 0.78600001 4287137931
-0.11442904 0.26557678 0.78800005 4287138187
-0.11308441 0.26591378 0.78900003 4287072907
-0.11173599 0.26625082 0.79000002 4286744455
-0.1103838 0.26658782 0.79100001 4286876296
-0.10889017 0.26658782 0.79100001 4286810504
-0.10753232 0.26692486 0.79200006 4286810504
-0.1060368 0.26692486 0.79200006 4286876296
-0.10467328 0.26726192 0.79300004 4286876296
-0.10317588 0.26726192 0.79300004 4286744711
-0.10167847 0.26726192 0.79300004 4286810503
-0.1003074 0.26759893 0.79400003 4286744711
-0.098808102 0.26759893 0.79400003 4286678919
-0.097553916 0.268273 0.79600006 4286744712
-0.096171521 0.26861 0.79700005 4286744711
-0.09478534 0.26894704 0.79800004 4286678919
-0.093395382 0.26928404 0.79900002 4286744712
-0.091886647 0.26928404 0.79900002 4287007884
-0.090377912 0.26928404 0.79900002 4286942091
-0.088869177 0.26928404 0.79900002 4286744712
-0.087360442 0.26928404 0.79900002 4286613126
-0.085744254 0.26894704 0.79800004 4286613126
-0.084342971 0.26928404 0.79900002 4286613126
-0.082937904 0.26962107 0.80000001 4286613126
-0.081630856 0.27029514 0.80200005 4286613126
-0.080116458 0.27029514 0.80200005 4286547333
-0.078896075 0.27130622 0.80500007 4286678919
-0.077568255 0.27198026 0.80700004 4286678919
-0.07604441 0.27198026 0.80700004 4286744712
-0.074520573 0.27198026 0.80700004 4286744197
-0.072996728 0.27198026 0.80700004 4286678404
-0.071384318 0.27164325 0.80600005 4286809990
-0.069949046 0.27198026 0.80700004 4286941576
-0.068509996 0.27231729 0.80800003 4286941576
-0.066984266 0.27231729 0.80800003 4286876298
-0.065539546 0.27265432 0.80900002 4286942091
-0.064170174 0.27332839 0.81100005 4286810505
-0.062638782 0.27332839 0.81100005 4286876296
-0.061182737 0.2736654 0.81200004 4286942089
-0.059722915 0.27400243 0.81300002 4286810503
-0.058259316 0.27433944 0.81400001 4286744711
-0.056791939 0.27467647 0.81500006 4286613125
-0.055320788 0.27501351 0.81600004 4286547333
-0.05384586 0.27535051 0.81700003 4286613126
-0.052303135 0.27535051 0.81700003 4286678919
-0.050822545 0.27568758 0.81800002 4286547333
-0.049277931 0.27568758 0.81800002 4286547077
-0.047733318 0.27568758 0.81800002 4286678406
-0.046245169 0.27602458 0.81900007 4286678660
-0.044698671 0.27602458 0.81900007 4286481538
-0.043204855 0.27636161 0.82000005 4286547331
-0.041758072 0.27703565 0.82200003 4285626230
-0.040303729 0.27770972 0.82400006 4284507749
-0.038982909 0.27939487 0.82900006 4284507494
-0.16965255 0.27960134 0.82500005 4285033063
-0.16422345 0.27316207 0.80600005 4285493871
-0.16189404 0.27180639 0.80200005 4285625714
-0.16017967 0.27146751 0.80100006 4285428593
-0.15787481 0.27011186 0.79700005 4285560436
-0.15597746 0.26943403 0.79500002 4285626229
-0.15389334 0.2684173 0.79200006 4285626229
-0.15220541 0.26807839 0.79100001 4285494644
-0.15071177 0.26807839 0.79100001 4285626231
-0.14921816 0.26807839 0.79100001 4285757817
-0.14772452 0.26807839 0.79100001 4285757817
-0.14623089 0.26807839 0.79100001 4285626231
-0.14455429 0.26773947 0.79000002 4285692024
-0.14288145 0.26740056 0.78900003 4285692024
-0.14139161 0.26740056 0.78900003 4285626231
-0.13972443 0.26706168 0.78800005 4285626231
-0.13823646 0.26706168 0.78800005 4285757561
-0.13674851 0.26706168 0.78800005 4285823610
-0.13526054 0.26706168 0.78800005 4286020733
-0.13360281 0.26672274 0.78700006 4286086527
-0.13194887 0.26638383 0.78600001 4286086271
-0.1301327 0.265706 0.78400004 4286283651
-0.1286523 0.265706 0.78400004 4286217858
-0.12700967 0.26536712 0.78300005 4286678408
-0.12553115 0.26536712 0.78300005 4286678408
-0.12405263 0.26536712 0.78300005 4286875787
-0.12273065 0.265706 0.78400004 4286941580
-0.12125024 0.265706 0.78400004 4286875530
-0.11992259 0.26604491 0.78500003 4287072396
-0.11859118 0.26638383 0.78600001 4287006603
-0.11725599 0.26672274 0.78700006 4287072138
-0.11576991 0.26672274 0.78700006 4287138187
-0.11442904 0.26706168 0.78800005 4287007113
-0.11308441 0.26740056 0.78900003 4287007369
-0.11159456 0.26740056 0.78900003 4286941833
-0.11024425 0.26773947 0.79000002 4286876296
-0.10889017 0.26807839 0.79100001 4286678917
-0.10739654 0.26807839 0.79100001 4286810504
-0.1060368 0.2684173 0.79200006 4286876298
-0.10467328 0.26875621 0.79300004 4286876298
-0.10317588 0.26875621 0.79300004 4286678918
-0.10167847 0.26875621 0.79300004 4286547333
-0.1003074 0.26909512 0.79400003 4286547333
-0.098808102 0.26909512 0.79400003 4286744712
-0.097553916 0.26977295 0.79600006 4286678919
-0.096171521 0.27011186 0.79700005 4286744712
-0.09478534 0.27045077 0.79800004 4286678919
-0.093395382 0.27078965 0.79900002 4286744712
-0.091886647 0.27078965 0.79900002 4286942091
-0.090377912 0.27078965 0.79900002 4286810504
-0.088869177 0.27078965 0.79900002 4286744710
-0.087360442 0.27078965 0.79900002 4286678919
-0.085851707 0.27078965 0.79900002 4286415747
-0.084448531 0.27112859 0.80000001 4286481285
-0.083041579 0.27146751 0.80100006 4286678663
-0.081630856 0.27180639 0.80200005 4286547078
-0.080216348 0.27214533 0.80300003 4286547078
-0.078896075 0.27282313 0.80500007 4286744456
-0.077568255 0.27350095 0.80700004 4286481540
-0.07604441 0.27350095 0.80700004 4286744710
-0.074520573 0.27350095 0.80700004 4286876294
-0.072996728 0.27350095 0.80700004 4286810503
-0.071472891 0.27350095 0.80700004 4286744710
-0.070035726 0.27383989 0.80800003 4286744710
-0.068594784 0.27417877 0.80900002 4286678917
-0.067067161 0.27417877 0.80900002 4286876296
-0.065620556 0.27451769 0.81000006 4286810506
-0.064170174 0.27485663 0.81100005 4286941837
-0.062716022 0.27519551 0.81200004 4286942091
-0.061258089 0.27553442 0.81300002 4286810503
-0.059796374 0.27587333 0.81400001 4286810503
-0.058330886 0.27621225 0.81500006 4286876296
-0.056861624 0.27655116 0.81600004 4286876296
-0.055320788 0.27655116 0.81600004 4286744711
-0.05384586 0.27689007 0.81700003 4286744710
-0.052367155 0.27722898 0.81800002 4286678919
-0.050822545 0.27722898 0.81800002 4286547333
-0.049277931 0.27722898 0.81800002 4286678919
-0.047791671 0.27756786 0.81900007 4286613125
-0.046245169 0.27756786 0.81900007 4286809992
-0.044807825 0.27824572 0.82100004 4286547333
-0.043310236 0.2785846 0.82200003 4286613126
-0.041859671 0.27926245 0.82400006 4285560438
-0.040352643 0.27960134 0.82500005 4284638823
-0.16442719 0.27502164 0.80700004 4285428078
-0.16189404 0.27331766 0.80200005 4285625971
-0.15997969 0.27263609 0.80000001 4285560180
-0.15787481 0.27161369 0.79700005 4285560437
-0.15578127 0.27059132 0.79400003 4285692024
-0.15389334 0.26990971 0.79200006 4285692024
-0.15220541 0.26956892 0.79100001 4285560438
-0.15071177 0.26956892 0.79100001 4285626231
-0.14921816 0.26956892 0.79100001 4285626231
-0.14753777 0.26922813 0.79000002 4285692024
-0.14604603 0.26922813 0.79000002 4285626231
-0.14437132 0.26888734 0.78900003 4285560438
-0.14270036 0.26854655 0.78800005 4285626231
-0.14121239 0.26854655 0.78800005 4285626231
-0.13972443 0.26854655 0.78800005 4285626231
-0.13823646 0.26854655 0.78800005 4285757817
-0.13674851 0.26854655 0.78800005 4285757817
-0.13526054 0.26854655 0.78800005 4285757817
-0.13360281 0.26820573 0.78700006 4285823610
-0.13178098 0.26752415 0.78500003 4286020989
-0.1301327 0.26718336 0.78400004 4286283905
-0.1286523 0.26718336 0.78400004 4286152575
-0.12717189 0.26718336 0.78400004 4286547334
-0.12537083 0.26650178 0.78200006 4286547079
-0.12389419 0.26650178 0.78200006 4286809994
-0.12257411 0.26684257 0.78300005 4286941580
-0.12125024 0.26718336 0.78400004 4286875787
-0.11992259 0.26752415 0.78500003 4286941323
-0.11859118 0.26786494 0.78600001 4286875528
-0.11725599 0.26820573 0.78700006 4286809735
-0.11576991 0.26820573 0.78700006 4286941577
-0.11442904 0.26854655 0.78800005 4287007369
-0.11294108 0.26854655 0.78800005 4286876039
-0.11145312 0.26854655 0.78800005 4286942089
-0.1101047 0.26888734 0.78900003 4286876295
-0.10875251 0.26922813 0.79000002 4286744709
-0.10726077 0.26922813 0.79000002 4286744710
-0.10590291 0.26956892 0.79100001 4286744710
-0.10454129 0.26990971 0.79200006 4286876296
-0.10304577 0.26990971 0.79200006 4286810503
-0.10155025 0.26990971 0.79200006 4286678917
-0.10018107 0.27025053 0.79300004 4286744711
-0.098808102 0.27059132 0.79400003 4286810505
-0.097431362 0.27093211 0.79500002 4286810505
-0.096050844 0.27127293 0.79600006 4286613126
-0.09478534 0.27195451 0.79800004 4286678919
-0.09327849 0.27195451 0.79800004 4286678919
-0.091771647 0.27195451 0.79800004 4286810504
-0.090264797 0.27195451 0.79800004 4286810503
-0.088757955 0.27195451 0.79800004 4286613124
-0.087251104 0.27195451 0.79800004 4286547333
-0.085851707 0.27229527 0.79900002 4286415747
-0.084448531 0.27263609 0.80000001 4286415747
-0.083041579 0.27297691 0.80100006 4286613126
-0.081630856 0.27331766 0.80200005 4286547333
-0.080216348 0.27365848 0.80300003 4286613126
-0.078896075 0.27434006 0.80500007 4286613126
-0.077472128 0.27468085 0.80600005 4286349953
-0.075950176 0.27468085 0.80600005 4286678917
-0.074520573 0.27502164 0.80700004 4286876296
-0.072996728 0.27502164 0.80700004 4286613124
-0.071472891 0.27502164 0.80700004 4286810505
-0.070035726 0.27536246 0.80800003 4286810504
-0.068594784 0.27570322 0.80900002 4286744710
-0.067150064 0.27604404 0.81000006 4286810503
-0.065620556 0.27604404 0.81000006 4286876298
-0.064170174 0.27638483 0.81100005 4286942091
-0.062716022 0.27672562 0.81200004 4286678918
-0.061258089 0.27706644 0.81300002 4286810501
-0.059796374 0.2774072 0.81400001 4286810503
-0.058259316 0.2774072 0.81400001 4286679431
-0.056861624 0.27808881 0.81600004 4286876296
-0.055388581 0.2784296 0.81700003 4286744710
-0.05384586 0.2784296 0.81700003 4286613126
-0.052367155 0.27877039 0.81800002 4286678919
-0.050884672 0.27911118 0.81900007 4286613126
-0.049338173 0.27911118 0.81900007 4286613126
-0.047791671 0.27911118 0.81900007 4286678919
-0.046301633 0.279452 0.82000005 4286678919
-0.044807825 0.27979279 0.82100004 4286547333
-0.043310236 0.28013358 0.82200003 4286613126
-0.16862436 0.28099716 0.82000005 4285099111
-0.16463095 0.27688503 0.80800003 4285362798
-0.16189404 0.27482894 0.80200005 4285560178
-0.16017967 0.27448627 0.80100006 4285494644
-0.15787481 0.27311555 0.79700005 4285560438
-0.15597746 0.27243018 0.79500002 4285560438
-0.15447627 0.27243018 0.79500002 4285692024
-0.15220541 0.27105945 0.79100001 4285625975
-0.15071177 0.27105945 0.79100001 4285560184
-0.14921816 0.27105945 0.79100001 4285625977
-0.14772452 0.27105945 0.79100001 4285494391
-0.14623089 0.27105945 0.79100001 4285560183
-0.14455429 0.27071679 0.79000002 4285494645
-0.14288145 0.27037409 0.78900003 4285626231
-0.14139161 0.27037409 0.78900003 4285494645
-0.13972443 0.27003145 0.78800005 4285626231
-0.13841189 0.27037409 0.78900003 4285692024
-0.13674851 0.27003145 0.78800005 4285560438
-0.13526054 0.27003145 0.78800005 4285692024
-0.13377258 0.27003145 0.78800005 4285889403
-0.13194887 0.26934606 0.78600001 4286020989
-0.13029869 0.26900339 0.78500003 4286152575
-0.1288164 0.26900339 0.78500003 4286086782
-0.12717189 0.26866069 0.78400004 4286349955
-0.12553115 0.26831806 0.78300005 4286547079
-0.12389419 0.26797536 0.78200006 4286810251
-0.12257411 0.26831806 0.78300005 4286810251
-0.12125024 0.26866069 0.78400004 4286744457
-0.11992259 0.26900339 0.78500003 4286809992
-0.11859118 0.26934606 0.78600001 4286744198
-0.11740497 0.27003145 0.78800005 4286678404
-0.11591701 0.27003145 0.78800005 4286744197
-0.11457426 0.27037409 0.78900003 4286744454
-0.11322773 0.27071679 0.79000002 4286744710
-0.11173599 0.27071679 0.79000002 4286810502
-0.11024425 0.27071679 0.79000002 4286810501
-0.10875251 0.27071679 0.79000002 4286744708
-0.10726077 0.27071679 0.79000002 4286744708
-0.10590291 0.27105945 0.79100001 4286678916
-0.10454129 0.27140215 0.79200006 4286678915
-0.10304577 0.27140215 0.79200006 4286678916
-0.10167847 0.27174485 0.79300004 4286876296
-0.1003074 0.27208748 0.79400003 4286744710
-0.098808102 0.27208748 0.79400003 4286744711
-0.097431362 0.27243018 0.79500002 4286744712
-0.096050844 0.27277288 0.79600006 4286613126
-0.094666563 0.27311555 0.79700005 4286744712
-0.093395382 0.27380088 0.79900002 4286678919
-0.091886647 0.27380088 0.79900002 4286876296
-0.090377912 0.27380088 0.79900002 4286744710
-0.088869177 0.27380088 0.79900002 4286613124
-0.087360442 0.27380088 0.79900002 4286613124
-0.085959151 0.27414358 0.80000001 4286415747
-0.084554091 0.27448627 0.80100006 4286349954
-0.083041579 0.27448627 0.80100006 4286415746
-0.081732638 0.27517164 0.80300003 4286415747
-0.080316246 0.27551427 0.80400002 4286481540
-0.078896075 0.27585697 0.80500007 4286547333
-0.077568255 0.27654234 0.80700004 4286481538
-0.07604441 0.27654234 0.80700004 4286613124
-0.074612908 0.27688503 0.80800003 4286876296
-0.073087186 0.27688503 0.80800003 4286613124
-0.071561456 0.27688503 0.80800003 4286810505
