# .PCD v0.7 - Point Cloud Data file format
VERSION 0.7
FIELDS x y z rgba
SIZE 4 4 4 4
TYPE F F F U
COUNT 1 1 1 1
WIDTH 1070
HEIGHT 1
VIEWPOINT 0 0 0 1 0 0 0
POINTS 1070
DATA ascii
0.1854181 0.12994903 0.049704671 4288064697
0.18471423 0.12975639 0.049342394 4288064697
0.18403286 0.12952763 0.048905253 4288064697
0.18337151 0.12926668 0.048401356 4288064697
0.18269601 0.12902749 0.047942638 4288064697
0.18201524 0.12879622 0.047500491 4288064697
0.18131897 0.12858915 0.047108293 4288064697
0.18062565 0.1283769 0.046705484 4288064697
0.17998025 0.12808746 0.046142697 4288064697
0.17930797 0.12784046 0.045667887 4288064697
0.17862952 0.12760276 0.045212269 4288064697
0.17796347 0.12734449 0.044714332 4288064697
0.17739174 0.12693375 0.043900132 4288064697
0.17675269 0.12663043 0.043308735 4288064697
0.17611408 0.12632567 0.042714238 4288064697
0.17555881 0.12588513 0.041838527 4288064697
0.17519718 0.12512904 0.040308833 4288064697
0.17462441 0.1247139 0.039485812 4288064697
0.17365685 0.12494022 0.039992213 4288064697
0.17226014 0.12586772 0.041951418 4288064697
0.1709027 0.1267345 0.043784976 4288064697
0.16986489 0.12708163 0.044541478 4288064697
0.16859096 0.12781739 0.046103239 4288064697
0.16715026 0.12883013 0.048238754 4288064697
0.16606942 0.12925446 0.049155235 4288064697
0.16511917 0.12946534 0.049629092 4288064697
0.16426846 0.12951291 0.049764752 4288064697
0.16346738 0.12947875 0.049731016 4288064697
0.1626659 0.12944543 0.049699187 4288064697
0.16188642 0.1293757 0.04959178 4288064697
0.16110718 0.12930572 0.049483895 4288064697
0.16034865 0.12920123 0.049304366 4288064697
0.15960309 0.12907493 0.049079776 4288064697
0.15884757 0.12896508 0.048889399 4288064697
0.15813243 0.12878752 0.048558712 4288064697
0.15748748 0.12849182 0.04798317 4288064697
0.15699723 0.12793505 0.046867132 4288064697
0.19082722 0.13250935 0.052901983 4288064697
0.19029519 0.13205278 0.051991224 4288064697
0.18962178 0.13181537 0.051535726 4288064697
0.18891332 0.13163221 0.05119276 4288064697
0.18820086 0.13145494 0.050862074 4288064697
0.18749705 0.13126391 0.050502777 4288064697
0.18680182 0.13105881 0.050114393 4288064697
0.18609548 0.13087088 0.049761534 4288064697
0.1854271 0.1306228 0.049283743 4288064697
0.18475327 0.13038272 0.048822761 4288064697
0.18409845 0.13011187 0.048297882 4288064697
0.1834648 0.129807 0.047702551 4288064697
0.18282136 0.1295169 0.047137618 4288064697
0.18213537 0.12929356 0.046711445 4288064697
0.18146586 0.12904358 0.046230078 4288064697
0.18078217 0.12881565 0.045794249 4288064697
0.1801312 0.12853485 0.045248985 4288064697
0.17951912 0.12819111 0.044572949 4288064697
0.17891887 0.12782747 0.043855667 4288064697
0.1782265 0.1276108 0.043443561 4288064697
0.17769232 0.12713909 0.042502284 4288064697
0.17707258 0.12680399 0.041844249 4288064697
0.17643076 0.12650359 0.041258574 4288064697
0.17582315 0.12614715 0.040556312 4288064697
0.17534038 0.12558728 0.039432168 4288064697
0.17290714 0.12550259 0.039368868 4288064697
0.17184517 0.12588429 0.040198326 4288064697
0.17063633 0.12650776 0.041529298 4288064697
0.16945282 0.12709236 0.042779446 4288064697
0.16810256 0.12795305 0.044602394 4288064697
0.16659009 0.12908381 0.046985507 4288064697
0.16512731 0.13013715 0.049207568 4288064697
0.16417262 0.13035601 0.049699068 4288064697
0.16332954 0.13039154 0.049809813 4288064697
0.16252539 0.13036293 0.04978776 4288064697
0.16175842 0.13027287 0.049638271 4288064697
0.1609644 0.13022768 0.049581766 4288064697
0.16022596 0.13009012 0.049333692 4288064697
0.15945891 0.13000005 0.049184084 4288064697
0.15872052 0.12986207 0.048935056 4288064697
0.1579904 0.12970996 0.048657179 4288064697
0.15730828 0.1294772 0.048211575 4288064697
0.15675068 0.12903446 0.047330737 4288064697
0.15623924 0.12851274 0.046286106 4288064697
0.15587083 0.12774825 0.044738054 4288064697
0.19088826 0.13310188 0.052315116 4288064697
0.1902633 0.13278997 0.051704168 4288064697
0.1895715 0.13258141 0.051308155 4288064697
0.18887457 0.13238049 0.050927997 4288064697
0.18816033 0.13220614 0.050603032 4288064697
0.18747136 0.13199186 0.050195098 4288064697
0.18677434 0.1317898 0.049812675 4288064697
0.18608847 0.13156992 0.049393177 4288064697
0.185451 0.13127309 0.048813939 4288064697
0.18481353 0.13097572 0.048233271 4288064697
0.18420535 0.13063127 0.047555089 4288064697
0.18359116 0.13029534 0.04689455 4288064697
0.18295315 0.1299963 0.046310782 4288064697
0.18225065 0.12979907 0.045938492 4288064697
0.18156704 0.12957132 0.045502782 4288064697
0.18096331 0.12921566 0.044801354 4288064697
0.1803126 0.12893409 0.044253945 4288064697
0.17970785 0.12857836 0.043552279 4288064697
0.17913118 0.12817663 0.042755365 4288064697
0.17852381 0.12782288 0.04205811 4288064697
0.17795643 0.12740415 0.041225672 4288064697
0.17731336 0.12710601 0.04064393 4288064697
0.17671442 0.12673593 0.03991282 4288064697
0.17604348 0.12648118 0.039421439 4288064697
0.17018363 0.12658453 0.039899945 4288064697
0.16901553 0.1271435 0.041098356 4288064697
0.16767725 0.12798423 0.042881966 4288064697
0.16593543 0.1294924 0.04605186 4288064697
0.16413447 0.13110387 0.049435854 4288064697
0.16320005 0.13129014 0.04986012 4288064697
0.162384 0.13128155 0.049879789 4288064697
0.16160741 0.13120776 0.049763918 4288064697
0.16083997 0.13111877 0.049616575 4288064697
0.16007316 0.13102883 0.049467206 4288064697
0.15932742 0.13090372 0.049244761 4288064697
0.15858826 0.13076735 0.048999071 4288064697
0.157855 0.13062096 0.048732519 4288064697
0.15716156 0.13040757 0.048327088 4288064697
0.15655595 0.13004619 0.047614217 4288064697
0.15603337 0.12954426 0.046609521 4288064697
0.15544346 0.12915409 0.045837045 4288064697
0.19145873 0.13418484 0.052710295 4288064697
0.190887 0.13379133 0.051929116 4288064697
0.1902138 0.13355458 0.051473975 4288064697
0.18951008 0.13336468 0.051116467 4288064697
0.1888313 0.13313568 0.050677657 4288064697
0.18811664 0.13296217 0.050354242 4288064697
0.18744728 0.13271743 0.049882531 4288064697
0.18676856 0.13248682 0.049440503 4288064697
0.18610832 0.13222671 0.048936844 4288064697
0.18548498 0.13190782 0.048311114 4288064697
0.18495622 0.13143921 0.047373772 4288064697
0.18436354 0.13107002 0.046643376 4288064697
0.18369272 0.13082343 0.046168089 4288064697
0.18302703 0.13056815 0.04567492 4288064697
0.18233368 0.13035619 0.045271635 4288064697
0.18161634 0.13018179 0.04494679 4288064697
0.18101797 0.12981772 0.044227123 4288064697
0.1804336 0.12943035 0.043459058 4288064697
0.17991504 0.12893671 0.042470098 4288064697
0.17936745 0.128488 0.041574597 4288064697
0.17882854 0.12802416 0.040647626 4288064697
0.17827645 0.12758017 0.03976202 4288064697
0.17763361 0.12728083 0.039177299 4288064697
0.16842744 0.12744099 0.039926887 4288064697
0.16712335 0.1282258 0.041596293 4288064697
0.16495636 0.13043499 0.046227336 4288064697
0.16310164 0.13213712 0.049804091 4288064697
0.16223729 0.13220859 0.049990177 4288064697
0.16147003 0.13211972 0.049843073 4288064697
0.16070724 0.13202351 0.049680471 4288064697
0.1599412 0.13193256 0.049529076 4288064697
0.15919718 0.13180488 0.049301386 4288064697
0.15845385 0.13167584 0.049070597 4288064697
0.15772608 0.13152069 0.048785806 4288064697
0.15703419 0.13130522 0.048375487 4288064697
0.15639046 0.13100845 0.04779613 4288064697
0.15585062 0.13053626 0.04685235 4288064697
0.15531084 0.13006246 0.045905232 4288064697
0.19148025 0.13483876 0.052250981 4288064697
0.1908451 0.13454378 0.051674247 4288064697
0.19015193 0.1343382 0.051283956 4288064697
0.18945134 0.13414377 0.050916553 4288064697
0.18877164 0.13391644 0.050480723 4288064697
0.18807372 0.133717 0.050103188 4288064697
0.18741557 0.13345492 0.049594879 4288064697
0.18676332 0.133183 0.049066305 4288064697
0.18615279 0.13284498 0.048400164 4288064697
0.18558246 0.13244289 0.047600389 4288064697
0.18508738 0.13192117 0.046551704 4288064697
0.18444124 0.1316362 0.045995951 4288064697
0.18371549 0.13147628 0.045700788 4288064697
0.18303511 0.13124436 0.045255661 4288064697
0.18235648 0.13100904 0.0448035 4288064697
0.18168351 0.13076419 0.044331551 4288064697
0.18116352 0.13027543 0.04335165 4288064697
0.18071297 0.12967461 0.042138338 4288064697
0.1801981 0.12917447 0.041134953 4288064697
0.17974439 0.12857521 0.039924979 4288064697
0.16654533 0.1285063 0.040389776 4288064697
0.1631805 0.13269174 0.049139857 4288064697
0.16210341 0.1331141 0.050056696 4288064697
0.1613023 0.13308167 0.050027132 4288064697
0.16055301 0.13296336 0.049818754 4288064697
0.15979758 0.13285524 0.049631357 4288064697
0.15906042 0.1327166 0.049380541 4288064697
0.15831402 0.1325931 0.049161315 4288064697
0.157594 0.13242543 0.048850179 4288064697
0.15688446 0.13223994 0.048501968 4288064697
0.15620744 0.13199949 0.048039436 4288064697
0.15564319 0.13156921 0.047181726 4288064697
0.15518871 0.13095289 0.045937181 4288064697
0.19197524 0.13603652 0.052887917 4288064697
0.19145513 0.13556498 0.051942229 4288064697
0.19079384 0.13531077 0.051449895 4288064697
0.19009304 0.13511717 0.05108428 4288064697
0.18939927 0.13491243 0.050695062 4288064697
0.18872002 0.13468444 0.050257683 4288064697
0.18803731 0.13446152 0.049830675 4288064697
0.18740049 0.13416642 0.049253225 4288064697
0.18678701 0.13383394 0.048597932 4288064697
0.18623537 0.13340378 0.04773891 4288064697
0.1857045 0.13293964 0.046808958 4288064697
0.18517295 0.13247544 0.045879006 4288064697
0.1844905 0.13224751 0.045441747 4288064697
0.18372455 0.13215095 0.045278549 4288064697
0.1830287 0.13194346 0.044884086 4288064697
0.18234709 0.13171309 0.044441819 4288064697
0.1817981 0.13127154 0.043559313 4288064697
0.1813837 0.13061494 0.04222858 4288064697
0.1808871 0.13008726 0.041166425 4288064697
0.180518 0.12935448 0.039676905 4288064697
0.16585949 0.12896371 0.039550304 4288064697
0.16189784 0.13413751 0.050370097 4288064697
0.16112819 0.13405353 0.050233006 4288064697
0.16039845 0.13390344 0.049958229 4288064697
0.15965647 0.13377345 0.049725294 4288064697
0.15893069 0.13361633 0.049435854 4288064697
0.15818396 0.13349372 0.049218416 4288064697
0.15747008 0.13331628 0.048886538 4288064697
0.15673602 0.13317215 0.048624277 4288064697
0.15607619 0.13290352 0.048102617 4288064697
0.15551403 0.13247031 0.047237992 4288064697
0.1550791 0.13182205 0.045925498 4288064697
0.19141105 0.13632053 0.051694751 4288064697
0.19073942 0.13608241 0.051235557 4288064697
0.19004193 0.13588399 0.050859451 4288064697
0.18935177 0.13567376 0.05045867 4288064697
0.18867216 0.13544673 0.050022602 4288064697
0.18799219 0.13521969 0.049586773 4288064697
0.18738952 0.13487154 0.048897982 4288064697
0.18682995 0.13445497 0.048066616 4288064697
0.18637881 0.13386744 0.046878099 4288064697
0.18581623 0.13345313 0.046051264 4288064697
0.18518847 0.13313997 0.045435905 4288064697
0.18447322 0.13296378 0.045106292 4288064697
0.18369845 0.13288116 0.044972062 4288064697
0.18301401 0.1326558 0.044539928 4288064697
0.18234101 0.13241178 0.044068933 4288064697
0.18178907 0.13197541 0.043196321 4288064697
0.18149453 0.13112891 0.041467667 4288064697
0.1812664 0.13017404 0.039512873 4288064697
0.16023186 0.13486308 0.050139666 4288064697
0.159511 0.13469851 0.049834371 4288064697
0.15878436 0.13454324 0.049548745 4288064697
0.15806672 0.13437277 0.049231172 4288064697
0.15733895 0.13421869 0.04894805 4288064697
0.15661743 0.13405406 0.048642635 4288064697
0.15593675 0.13382083 0.048194408 4288064697
0.15538576 0.13336962 0.047291398 4288064697
0.15496126 0.13270462 0.045942545 4288064697
0.19240612 0.13801765 0.053339481 4288064697
0.19199228 0.13738459 0.052054048 4288064697
0.19136742 0.13707525 0.051445603 4288064697
0.19068706 0.13685095 0.051015019 4288064697
0.18997335 0.1366778 0.050691485 4288064697
0.18929169 0.13645464 0.050263286 4288064697
0.18861699 0.13622016 0.049811363 4288064697
0.1879507 0.13597208 0.049331069 4288064697
0.18738475 0.13556695 0.048522592 4288064697
0.18691275 0.13501394 0.047405005 4288064697
0.18646351 0.13442367 0.046209574 4288064697
0.18589923 0.13401192 0.045387506 4288064697
0.18521127 0.13379329 0.044968843 4288064697
0.18441951 0.13373744 0.044890642 4288064697
0.18362984 0.13367838 0.044805765 4288064697
0.18293241 0.13347375 0.044416547 4288064697
0.18233156 0.13311607 0.04370749 4288064697
0.18217793 0.13204902 0.041515827 4288064697
0.18187484 0.13121563 0.039812803 4288064697
0.16063237 0.13623965 0.051154971 4288064697
0.16007361 0.13580847 0.050292611 4288064697
0.15937155 0.13561326 0.049923182 4288064697
0.15863833 0.13546926 0.049660802 4288064697
0.15791163 0.1353144 0.049375653 4288064697
0.15719292 0.13514578 0.049061775 4288064697
0.15648791 0.13495404 0.048699617 4288064697
0.15581286 0.1347118 0.048232079 4288064697
0.15520474 0.13435686 0.04752934 4288064697
0.15480861 0.13364542 0.046081901 4288064697
0.19239774 0.13871741 0.052977324 4288064697
0.19194204 0.1381492 0.051826477 4288064697
0.19131222 0.13784784 0.051234126 4288064697
0.19062108 0.13764042 0.05083859 4288064697
0.18991005 0.13746327 0.050506234 4288064697
0.18922541 0.13724506 0.050088048 4288064697
0.18854573 0.1370185 0.049652457 4288064697
0.18789604 0.13674492 0.0491184 4288064697
0.18733785 0.13632804 0.04828465 4288064697
0.1869339 0.13566935 0.046944499 4288064697
0.18651342 0.13503444 0.045654535 4288064697
0.18598488 0.1345669 0.044714808 4288064697
0.18525425 0.13441497 0.044435501 4288064697
0.18425176 0.13469011 0.045049906 4288064697
0.16040906 0.13729113 0.051531553 4288064697
0.15990886 0.13676417 0.050468087 4288064697
0.15922287 0.13654286 0.050043941 4288064697
0.15850532 0.1363734 0.049728155 4288064697
0.15779778 0.13618708 0.049376965 4288064697
0.15706936 0.13603503 0.049097419 4288064697
0.15635619 0.13585728 0.048764467 4288064697
0.1556783 0.1356203 0.048307419 4288064697
0.15508318 0.13524425 0.047559619 4288064697
0.15464607 0.13460225 0.046256185 4288064697
0.15419218 0.13398641 0.045007229 4288064697
0.19240317 0.13939595 0.05257082 4288064697
0.19188356 0.13892639 0.05162549 4288064697
0.1912514 0.13862896 0.051040888 4288064697
0.1905522 0.13843417 0.050671339 4288064697
0.18983904 0.1382606 0.050346255 4288064697
0.18916398 0.13802779 0.049897075 4288064697
0.18847686 0.13781303 0.049485803 4288064697
0.18783084 0.13753408 0.048940182 4288064697
0.18731123 0.13705754 0.047980428 4288064697
0.18694261 0.13634431 0.046524882 4288064697
0.18658426 0.13561279 0.045031071 4288064697
0.18597144 0.13527733 0.044366956 4288064697
0.18513381 0.13529313 0.044438958 4288064697
0.18402019 0.13574266 0.045419574 4288064697
0.18335858 0.13548315 0.044914722 4288064697
0.18279198 0.1350733 0.04409492 4288064697
0.16024858 0.13823855 0.051692128 4288064697
0.15974033 0.13772565 0.050657034 4288064697
0.15907767 0.13746643 0.050153017 4288064697
0.15838838 0.1372506 0.049739957 4288064697
0.15767953 0.13706678 0.049393773 4288064697
0.15695086 0.1369155 0.049115777 4288064697
0.15625027 0.13671726 0.048739433 4288064697
0.15555015 0.13651776 0.048360586 4288064697
0.15495577 0.13614112 0.047610879 4288064697
0.1545274 0.13548535 0.046276927 4288064697
0.15407091 0.13487464 0.045037508 4288064697
0.19181284 0.13972241 0.0514642 4288064697
0.1911653 0.13944894 0.050929308 4288064697
0.19046566 0.13925511 0.050561428 4288064697
0.1897783 0.1390419 0.050153136 4288064697
0.18909073 0.13882869 0.049744725 4288064697
0.18838653 0.13864076 0.049389243 4288064697
0.18775812 0.13833475 0.048786283 4288064697
0.18724263 0.13785237 0.047813416 4288064697
0.18699995 0.13694364 0.045946121 4288064697
0.18667677 0.13615763 0.044336557 4288064697
0.18601963 0.13589138 0.043816924 4288064697
0.18486652 0.13640094 0.044924736 4288064697
0.18385434 0.13669157 0.045573235 4288064697
0.18344453 0.13603693 0.044239163 4288064697
0.18287626 0.13562971 0.043424368 4288064697
0.1601018 0.13916302 0.051805735 4288064697
0.15962908 0.1385923 0.050648332 4288064697
0.15896502 0.13833576 0.05014956 4288064697
0.15827188 0.13812679 0.049750328 4288064697
0.15755829 0.1379512 0.04942131 4288064697
0.15685895 0.13775158 0.049041748 4288064697
0.1561586 0.13755327 0.048664808 4288064697
0.15546486 0.13734341 0.048263907 4288064697
0.15486529 0.13697588 0.047532678 4288064697
0.15445882 0.13628429 0.046122313 4288064697
0.19253531 0.14183033 0.053981066 4288064697
0.19230339 0.1409229 0.052113891 4288064697
0.1917457 0.14051265 0.051291227 4288064697
0.19109085 0.14025068 0.050780058 4288064697
0.19038105 0.14007288 0.050445437 4288064697
0.18969265 0.13986158 0.050040841 4288064697
0.18898711 0.13967639 0.049691081 4288064697
0.18829718 0.1394667 0.049289584 4288064697
0.18767774 0.1391471 0.048657656 4288064697
0.18716806 0.13865632 0.047665834 4288064697
0.18700057 0.13763148 0.045552731 4288064697
0.18667248 0.13685369 0.043958545 4288064697
0.18588343 0.13679349 0.043871284 4288064697
0.18447471 0.13770276 0.045819998 4288064697
0.18300107 0.13481897 0.039921403 4288064697
0.16002652 0.13996947 0.051672697 4288064697
0.15951106 0.13946974 0.050662994 4288064697
0.15885279 0.13920426 0.05014503 4288064697
0.15816632 0.13898462 0.049723029 4288064697
0.15745464 0.13880616 0.049387693 4288064697
0.15677086 0.13858122 0.048954606 4288064697
0.15605852 0.13840312 0.048620105 4288064697
0.15537456 0.13817739 0.048185468 4288064697
0.15480232 0.13776469 0.047358632 4288064697
0.15443251 0.13701248 0.045819759 4288064697
0.19252893 0.14252633 0.053613186 4288064697
0.1922569 0.14168096 0.051874399 4288064697
0.19166175 0.14132869 0.051172853 4288064697
0.19098768 0.14109647 0.050723791 4288064697
0.19029185 0.14089745 0.050344467 4288064697
0.18959698 0.14069647 0.04996109 4288064697
0.18889484 0.14050639 0.04960072 4288064697
0.18820786 0.14029229 0.049189806 4288064697
0.18758807 0.13997382 0.048559427 4288064697
0.18707207 0.13949329 0.047588348 4288064697
0.18692276 0.13844132 0.04541564 4288064697
0.18664357 0.1375882 0.043661475 4288064697
0.15995875 0.14076352 0.05151403 4288064697
0.15940589 0.1403259 0.050633788 4288064697
0.15875435 0.14004964 0.050092578 4288064697
0.15807262 0.13982254 0.049654722 4288064697
0.15736303 0.13964105 0.049312592 4288064697
0.156674 0.1394251 0.04889822 4288064697
0.15598479 0.13920891 0.048483253 4288064697
0.15529603 0.13899142 0.048065662 4288064697
0.15474564 0.13854283 0.047162652 4288064697
0.15436468 0.13780999 0.045662642 4288064697
0.19243866 0.14335048 0.053514838 4288064697
0.19215289 0.14252704 0.051820517 4288064697
0.19157693 0.14214581 0.0510571 4288064697
0.19089839 0.14192086 0.050623059 4288064697
0.19019118 0.14173961 0.050280929 4288064697
0.18948945 0.14154947 0.049920082 4288064697
0.18878779 0.14135891 0.049558282 4288064697
0.18810436 0.14113981 0.0491364 4288064697
0.18745843 0.14086217 0.048591375 4288064697
0.18695137 0.14036846 0.047591686 4288064697
0.18309188 0.13865662 0.044225693 4288064697
0.18253532 0.13823283 0.043373227 4288064697
0.15931746 0.14115429 0.050546646 4288064697
0.15866244 0.14088416 0.050017953 4288064697
0.15796861 0.14067733 0.049622416 4288064697
0.1572744 0.14047068 0.049227238 4288064697
0.15658519 0.14025533 0.048813701 4288064697
0.15589893 0.14003462 0.048388958 4288064697
0.15524852 0.1397537 0.047837615 4288064697
0.15471056 0.13928497 0.046891093 4288064697
0.1543507 0.13851744 0.045316696 4288064697
0.19233948 0.14418811 0.053445458 4288064697
0.19203189 0.14339882 0.051821351 4288064697
0.19145951 0.14301264 0.051046968 4288064697
0.19078121 0.14278769 0.05061245 4288064697
0.19008544 0.14258915 0.050233483 4288064697
0.18936607 0.14242667 0.049930573 4288064697
0.18865356 0.14225316 0.049604654 4288064697
0.18798229 0.1420157 0.049143672 4288064697
0.18731588 0.14177018 0.048665881 4288064697
0.18678448 0.14131492 0.047746062 4288064697
0.18263963 0.14134431 0.048006535 4288064697
0.16033235 0.14285815 0.052224994 4288064697
0.1598396 0.14232433 0.051140428 4288064697
0.15925005 0.14194787 0.050387144 4288064697
0.15857679 0.14170802 0.049921751 4288064697
0.15788397 0.14149994 0.049522996 4288064697
0.15718767 0.14129704 0.049135447 4288064697
0.15651667 0.14105189 0.048658848 4288064697
0.1558266 0.14083779 0.048247457 4288064697
0.15519342 0.14052862 0.047636151 4288064697
0.15468535 0.14001054 0.046584964 4288064697
0.15439612 0.13912606 0.044762492 4288064697
0.19133049 0.14389694 0.051074266 4288064697
0.19065395 0.14366984 0.050634742 4288064697
0.18996307 0.14346409 0.050240397 4288064697
0.18925259 0.14328831 0.049909234 4288064697
0.18852955 0.14313132 0.049617767 4288064697
0.18782821 0.14294076 0.049255371 4288064697
0.18715253 0.14270997 0.048808455 4288064697
0.18658566 0.14231038 0.048004985 4288064697
0.16036257 0.14349097 0.051728606 4288064697
0.15977946 0.14310545 0.050955534 4288064697
0.15915132 0.1427927 0.050335884 4288064697
0.15847972 0.14255059 0.049865127 4288064697
0.15780365 0.14231515 0.049408674 4288064697
0.15711987 0.14209205 0.048977971 4288064697
0.1564292 0.14187962 0.048570037 4288064697
0.15575749 0.14163542 0.048094988 4288064697
0.15515938 0.14126849 0.047361374 4288064697
0.15471348 0.14064747 0.046092033 4288064697
0.15440112 0.13980216 0.044350028 4288064697
0.19120762 0.14477158 0.051081896 4288064697
0.19053733 0.14453524 0.050622582 4288064697
0.18984017 0.14433956 0.050249219 4288064697
0.18910632 0.14420003 0.04999423 4288064697
0.1883904 0.14403254 0.049680352 4288064697
0.18765947 0.14388794 0.049414992 4288064697
0.18694571 0.14371651 0.049092889 4288064697
0.1863488 0.14336413 0.048388481 4288064697
0.18586424 0.14283681 0.047314525 4288064697
0.18530613 0.14242202 0.046478271 4288064697
0.18374404 0.14356679 0.048936725 4288064697
0.18315515 0.14320034 0.048202634 4288064697
0.16035929 0.14417869 0.051347852 4288064697
0.15972728 0.14387351 0.050743461 4288064697
0.15906727 0.14361328 0.050234079 4288064697
0.158389 0.14338249 0.049786806 4288064697
0.15771636 0.14314175 0.049318671 4288064697
0.15705201 0.14288688 0.048820734 4288064697
0.15636656 0.14266622 0.048394918 4288064697
0.15571389 0.14239079 0.047853589 4288064697
0.15514779 0.14197111 0.047007799 4288064697
0.15472502 0.14131212 0.045657277 4288064697
0.1544351 0.14043003 0.043835759 4288064697
0.1916672 0.14601517 0.051830769 4288064697
0.19108966 0.14563847 0.051074028 4288064697
0.19042546 0.14539325 0.050595403 4288064697
0.18970528 0.14523327 0.05029726 4288064697
0.18896669 0.14510113 0.050058126 4288064697
0.18825361 0.14492977 0.049735546 4288064697
0.1875152 0.14479703 0.049495101 4288064697
0.18680358 0.1446228 0.049166799 4288064697
0.1861589 0.14434481 0.048618913 4288064697
0.18556312 0.1439904 0.047909617 4288064697
0.1849418 0.14367473 0.047282338 4288064697
0.18387598 0.14404857 0.048113227 4288064697
0.18304098 0.1440649 0.048187852 4288064697
0.1609467 0.1452381 0.051712155 4288064697
0.16034755 0.14488029 0.050996065 4288064697
0.15967095 0.14464819 0.050545573 4288064697
0.15900019 0.14440596 0.050073743 4288064697
0.15831757 0.14418244 0.049641609 4288064697
0.15764394 0.14394379 0.049177408 4288064697
0.15698215 0.14368498 0.04867053 4288064697
0.1563203 0.14342564 0.048162818 4288064697
0.15569285 0.14310873 0.047533274 4288064697
0.15513542 0.14267498 0.046657085 4288064697
0.1914542 0.147026 0.052129269 4288064697
0.1909515 0.14653587 0.051131487 4288064697
0.19029531 0.14627892 0.050627589 4288064697
0.18956962 0.1461277 0.050347805 4288064697
0.18883303 0.14599293 0.05010283 4288064697
0.18810609 0.14584321 0.049825907 4288064697
0.18734393 0.14574736 0.049663424 4288064697
0.18662927 0.14557827 0.049345732 4288064697
0.18591484 0.14540851 0.049026728 4288064697
0.18529609 0.14509058 0.048393846 4288064697
0.18470785 0.14472455 0.047659159 4288064697
0.18380526 0.14484525 0.047955155 4288064697
0.18288454 0.1449948 0.048312306 4288064697
0.18222255 0.14474231 0.047818065 4288064697
0.18160567 0.14441884 0.047173738 4288064697
0.16098481 0.14585847 0.051189065 4288064697
0.16029879 0.1456424 0.050772309 4288064697
0.15961292 0.14542556 0.050353885 4288064697
0.15893829 0.14518988 0.049895525 4288064697
0.15824687 0.14498109 0.049494147 4288064697
0.15757871 0.14473379 0.049010992 4288064697
0.15692699 0.14445865 0.048469424 4288064697
0.15628633 0.14416468 0.047887802 4288064697
0.15568224 0.1438095 0.047176719 4288064697
0.1551958 0.14325863 0.046051741 4288064697
0.15493044 0.14233959 0.044148088 4288064697
0.15456674 0.14158082 0.042583466 4288064697
0.19015589 0.14717841 0.050689936 4288064697
0.18942842 0.14703023 0.05041647 4288064697
0.18870401 0.14687723 0.050132513 4288064697
0.18796745 0.14674252 0.049887657 4288064697
0.18720192 0.14665222 0.049736738 4288064697
0.18646428 0.14651895 0.049494624 4288064697
0.18573827 0.14636761 0.049214244 4288064697
0.18507427 0.14612019 0.048730373 4288064697
0.18447104 0.14577806 0.048045754 4288064697
0.18378749 0.14555955 0.047623158 4288064697
0.18298954 0.14551836 0.047576427 4288064697
0.16162795 0.14682597 0.051360726 4288064697
0.16095784 0.14658481 0.050890207 4288064697
0.16026357 0.14638233 0.050501823 4288064697
0.15956828 0.14618099 0.050115824 4288064697
0.15888229 0.14596415 0.049696922 4288064697
0.15819868 0.14574283 0.049268723 4288064697
0.15752646 0.14550233 0.048799634 4288064697
0.15687656 0.14522451 0.048251867 4288064697
0.15625039 0.14490694 0.04761982 4288064697
0.1557017 0.14446062 0.046715021 4288064697
0.15530875 0.14375567 0.045262337 4288064697
0.15514091 0.1426754 0.043015242 4288064697
0.18997169 0.14814585 0.050897479 4288064697
0.18928668 0.1479333 0.050487041 4288064697
0.18856475 0.1477769 0.050195813 4288064697
0.18781108 0.14766884 0.050007224 4288064697
0.18705735 0.14756072 0.049818516 4288064697
0.18629399 0.14746743 0.04966116 4288064697
0.18555197 0.14734119 0.049433827 4288064697
0.18483534 0.14717555 0.049123287 4288064697
0.18420532 0.14687574 0.048527598 4288064697
0.18358585 0.14655882 0.04789567 4288064697
0.18295649 0.14625645 0.047294736 4288064697
0.18218586 0.14617288 0.047158241 4288064697
0.18156675 0.14585346 0.046521068 4288064697
0.16228285 0.1477735 0.051490784 4288064697
0.16160712 0.14754212 0.051040649 4288064697
0.16092363 0.14732271 0.050616026 4288064697
0.16022405 0.14712918 0.050246 4288064697
0.15952441 0.14693511 0.049875379 4288064697
0.15884158 0.1467132 0.049445391 4288064697
0.15815708 0.14649361 0.04902041 4288064697
0.15747932 0.14626241 0.048570752 4288064697
0.15686032 0.14593416 0.047915339 4288064697
0.15628096 0.14553982 0.047119856 4288064697
0.1557714 0.14502919 0.046077609 4288064697
0.15547255 0.14416903 0.044294596 4288064697
0.19031402 0.14956528 0.052026153 4288064697
0.18981925 0.14906442 0.051002502 4288064697
0.18915012 0.14882815 0.050541162 4288064697
0.18841311 0.14869511 0.050299406 4288064697
0.1876488 0.14860368 0.050146103 4288064697
0.18689194 0.14850086 0.049968362 4288064697
0.18613166 0.14840323 0.049801826 4288064697
0.18538514 0.14828426 0.049590111 4288064697
0.18461823 0.14819664 0.049444795 4288064697
0.18391287 0.14801395 0.049097538 4288064697
0.18326029 0.1477493 0.048575997 4288064697
0.18265459 0.14741123 0.047898769 4288064697
0.18197972 0.14717972 0.047447801 4288064697
0.18134084 0.14689171 0.046876907 4288064697
0.16298333 0.14864665 0.051463723 4288064697
0.16229174 0.14844149 0.051069021 4288064697
0.16158506 0.14826035 0.050724983 4288064697
0.16088119 0.14807415 0.050370574 4288064697
0.16018617 0.14787322 0.049984694 4288064697
0.15948397 0.14768362 0.049623013 4288064697
0.15880495 0.14745569 0.049179912 4288064697
0.15811878 0.14723891 0.048760533 4288064697
0.15745646 0.14698267 0.048257351 4288064697
0.15685257 0.14662987 0.047549129 4288064697
0.15634686 0.14611465 0.046496272 4288064697
0.15597972 0.14536965 0.044955492 4288064697
0.15575227 0.14439172 0.042920589 4288064697
0.18899319 0.14975381 0.050661802 4288064697
0.18826568 0.14960659 0.050389767 4288064697
0.18751132 0.14950031 0.050204754 4288064697
0.18675265 0.14940059 0.050033689 4288064697
0.18597913 0.14932364 0.049910903 4288064697
0.18521729 0.14922857 0.049749851 4288064697
0.18444523 0.14914942 0.049622655 4288064697
0.18369976 0.14902902 0.049407482 4288064697
0.18294063 0.14892972 0.04923737 4288064697
0.18223256 0.14875132 0.048898935 4288064697
0.18154535 0.14854014 0.048491001 4288064697
0.18087143 0.14830786 0.048038006 4288064697
0.17984721 0.14862037 0.048743844 4288064697
0.17861509 0.14925843 0.050142288 4288064697
0.17790273 0.14908707 0.049818993 4288064697
0.16369042 0.14950883 0.051413655 4288064697
0.16297564 0.14934152 0.051099062 4288064697
0.1622692 0.14916033 0.050754905 4288064697
0.16155171 0.14899677 0.05044806 4288064697
0.16085055 0.14880633 0.050084352 4288064697
0.16015121 0.14861262 0.049713492 4288064697
0.15945587 0.14841193 0.04932785 4288064697
0.15877688 0.14818418 0.048884749 4288064697
0.15809354 0.14796299 0.048455715 4288064697
0.15744901 0.14767778 0.047890544 4288064697
0.15687639 0.1472739 0.047073126 4288064697
0.15642852 0.14666396 0.045817852 4288064697
0.15611476 0.14583141 0.044089437 4288064697
0.15601924 0.14463639 0.041590571 4288064697
0.15567538 0.14384747 0.039954901 4288064697
0.18940929 0.1510604 0.051553726 4288064697
0.18883348 0.15068322 0.050791502 4288064697
0.18811628 0.1505208 0.050486684 4288064697
0.18737483 0.15039515 0.050260425 4288064697
0.18660957 0.15030575 0.050111294 4288064697
0.18584877 0.15020955 0.049947739 4288064697
0.18507597 0.15013176 0.049823284 4288064697
0.18430361 0.1500532 0.04969728 4288064697
0.1835247 0.1499849 0.04959321 4288064697
0.18273556 0.14993227 0.0495224 4288064697
0.18195036 0.14987373 0.049438953 4288064697
0.18118137 0.14979023 0.04930234 4288064697
0.18043309 0.14967453 0.04909718 4288064697
0.17958936 0.14970702 0.049207807 4288064697
0.17880693 0.14964449 0.049115777 4288064697
0.1777955 0.14993948 0.049785376 4288064697
0.17695281 0.1499719 0.049895883 4288064697
0.16514695 0.1504817 0.051558495 4288064697
0.16441807 0.15033752 0.051292777 4288064697
0.16368121 0.15020597 0.051054001 4288064697
0.16295287 0.15006053 0.05078578 4288064697
0.1622332 0.14990085 0.050486922 4288064697
0.16151005 0.1497466 0.050199866 4288064697
0.1608189 0.14954019 0.049801707 4288064697
0.16013148 0.14932716 0.049389601 4288064697
0.15944108 0.14911866 0.048987031 4288064697
0.15876451 0.14888704 0.048535347 4288064697
0.15809482 0.14864367 0.048058629 4288064697
0.1574755 0.1483174 0.047405601 4288064697
0.15697011 0.14780354 0.04635334 4288064697
0.1566253 0.14702469 0.04473722 4288064697
0.15638807 0.14606637 0.042739272 4288064697
0.15623698 0.14496309 0.04043293 4288064697
0.15575543 0.14440113 0.039278626 4288064697
0.1879631 0.15144026 0.050596118 4288064697
0.18722284 0.1513133 0.05036664 4288064697
0.18646288 0.15121615 0.050201058 4288064697
0.18570843 0.15111047 0.050017238 4288064697
0.18491724 0.1510613 0.049953818 4288064697
0.18415365 0.15096962 0.0497998 4288064697
0.18336233 0.15092069 0.049736977 4288064697
0.18258139 0.1508559 0.049640179 4288064697
0.18175694 0.1508584 0.049687028 4288064697
0.18097523 0.15079498 0.049593329 4288064697
0.18016315 0.15077877 0.049600244 4288064697
0.17935523 0.1507563 0.049593687 4288064697
0.17853805 0.15074831 0.049618363 4288064697
0.17771098 0.15075618 0.049676538 4288064697
0.17684418 0.15082628 0.049867511 4288064697
0.17600527 0.15085346 0.049966812 4288064697
0.1751883 0.15084642 0.049993396 4288064697
0.17435846 0.15085995 0.050063729 4288064697
0.17331901 0.15120351 0.050837517 4288064697
0.17243364 0.15130579 0.051096916 4288064697
0.16665557 0.15137053 0.051524878 4288064697
0.16590092 0.15126789 0.051347494 4288064697
0.16514817 0.15116209 0.051163554 4288064697
0.16440114 0.15104717 0.050959945 4288064697
0.16365775 0.15092611 0.050743341 4288064697
0.16292873 0.15078187 0.050477386 4288064697
0.16220859 0.15062308 0.050180316 4288064697
0.16149664 0.15045077 0.049854398 4288064697
0.16080707 0.15024185 0.049450636 4288064697
0.16011021 0.15004432 0.049071074 4288064697
0.15942314 0.14983046 0.048656821 4288064697
0.15876713 0.14956552 0.04813385 4288064697
0.15813991 0.14925295 0.047509313 4288064697
0.15760258 0.14879286 0.046570301 4288064697
0.15717933 0.1481446 0.045230627 4288064697
0.15689024 0.14727437 0.04341805 4288064697
0.15665516 0.14631248 0.041410327 4288064697
0.15643081 0.14532971 0.039358377 4288064697
0.18852028 0.15253139 0.051031351 4288064697
0.18783715 0.15231794 0.050617218 4288064697
0.18708456 0.15221006 0.050428391 4288064697
0.18632856 0.1521073 0.050250769 4288064697
0.18555084 0.15203762 0.050143719 4288064697
0.18476769 0.15197635 0.050054312 4288064697
0.18399522 0.15189874 0.049930573 4288064697
0.18320271 0.15185201 0.049872279 4288064697
0.1824207 0.15178919 0.049779892 4288064697
0.18160883 0.1517725 0.049785972 4288064697
0.18080622 0.15174174 0.049762011 4288064697
0.18000337 0.15171152 0.049739122 4288064697
0.17918679 0.15170276 0.049762011 4288064697
0.17836305 0.15170538 0.049809337 4288064697
0.17754194 0.15170437 0.049848795 4288064697
0.17671478 0.15171295 0.049908757 4288064697
0.17585763 0.15176868 0.050069332 4288064697
0.17499796 0.15182889 0.050239563 4288064697
0.17414737 0.15187532 0.050380468 4288064697
0.17327037 0.15196365 0.050610662 4288064697
0.17241475 0.15201908 0.050770402 4288064697
0.17156872 0.15205979 0.05089891 4288064697
0.17071137 0.1521188 0.051066399 4288064697
0.16987154 0.15215051 0.051175714 4288064697
0.16904002 0.15216947 0.051257968 4288064697
0.16823122 0.15215278 0.051263809 4288064697
0.16743904 0.1521098 0.051213622 4288064697
0.16665652 0.15205157 0.051131129 4288064697
0.16588691 0.15197283 0.051004529 4288064697
0.16512397 0.15188342 0.050855279 4288064697
0.16437849 0.15176594 0.050646305 4288064697
0.16364112 0.15163529 0.050409079 4288064697
0.1629079 0.1514979 0.050157428 4288064697
0.162195 0.15132749 0.049835682 4288064697
0.16148701 0.15114886 0.049495935 4288064697
0.1607925 0.15094805 0.049109221 4288064697
0.16010115 0.1507417 0.048710585 4288064697
0.15942496 0.15051025 0.048258424 4288064697
0.15879843 0.15019757 0.047632933 4288064697
0.15822622 0.14979547 0.046816826 4288064697
0.15777496 0.14919484 0.045577407 4288064697
0.15746269 0.14836514 0.043849111 4288064697
0.15725562 0.14736044 0.041747808 4288064697
0.15703198 0.14637947 0.03969717 4288064697
0.18697533 0.15306228 0.050395966 4288064697
0.18620482 0.15298188 0.050265908 4288064697
0.18543184 0.15290529 0.050143957 4288064697
0.18464586 0.15284854 0.050064564 4288064697
0.1838375 0.15282631 0.050058961 4288064697
0.18305117 0.1527704 0.049981236 4288064697
0.18225887 0.15272379 0.049923539 4288064697
0.18145946 0.15268821 0.049889207 4288064697
0.18065086 0.15266699 0.04988575 4288064697
0.17985514 0.1526261 0.049840212 4288064697
0.17902693 0.15263563 0.049902439 4288064697
0.17820945 0.1526289 0.049929976 4288064697
0.17737702 0.15264559 0.050007582 4288064697
0.17655855 0.152641 0.05003953 4288064697
0.17570785 0.15268695 0.050179482 4288064697
0.17487606 0.15270376 0.050257206 4288064697
0.17403033 0.15274274 0.050382376 4288064697
0.17318287 0.15278488 0.05051434 4288064697
0.17234242 0.15281641 0.050623536 4288064697
0.17150974 0.15283608 0.05070734 4288064697
0.17067459 0.15286011 0.050800323 4288064697
0.16984743 0.15287173 0.0508672 4288064697
0.16902336 0.15287888 0.050924182 4288064697
0.16821113 0.1528675 0.050941706 4288064697
0.16741982 0.15282309 0.050888419 4288064697
0.16663581 0.15276724 0.050811052 4288064697
0.16586688 0.15268743 0.050682187 4288064697
0.1651085 0.15259069 0.050517321 4288064697
0.16436186 0.15247512 0.050312281 4288064697
0.16362253 0.15234768 0.050081849 4288064697
0.16290331 0.15218782 0.049782157 4288064697
0.162191 0.15201658 0.049458027 4288064697
0.16147354 0.1518532 0.049150825 4288064697
0.16078624 0.15164077 0.048738956 4288064697
0.16011405 0.15140349 0.04827404 4288064697
0.15946615 0.15112621 0.047723532 4288064697
0.15887836 0.15075058 0.046963096 4288064697
0.15839094 0.15021062 0.045851588 4288064697
0.15800533 0.14950287 0.044381976 4288064697
0.15775695 0.14856881 0.04242897 4288064697
0.15745556 0.14771831 0.040654659 4288064697
0.18689802 0.15386569 0.050259471 4288064697
0.18610415 0.15382111 0.050206184 4288064697
0.18530825 0.15377969 0.050159574 4288064697
0.18452993 0.15371156 0.050055742 4288064697
0.18371379 0.15370131 0.050075889 4288064697
0.18291304 0.15366787 0.050046444 4288064697
0.18208984 0.153669 0.050091028 4288064697
0.1813114 0.15360153 0.049988389 4288064697
0.1804947 0.15359306 0.050012589 4288064697
0.17971483 0.15352798 0.049915195 4288064697
0.17888322 0.15354311 0.049989581 4288064697
0.17807475 0.15352261 0.049987793 4288064697
0.17724654 0.15353304 0.050052047 4288064697
0.17643306 0.15352082 0.05006814 4288064697
0.17559138 0.15355289 0.050178766 4288064697
0.17477074 0.15355247 0.050219655 4288064697
0.17393419 0.15357715 0.050314665 4288064697
0.17309734 0.15360278 0.050411463 4288064697
0.17226896 0.15361547 0.050480485 4288064697
0.1714429 0.15362477 0.050542474 4288064697
0.17061672 0.15363461 0.050605536 4288064697
0.1697965 0.15363544 0.050649285 4288064697
0.16898963 0.15361524 0.050648093 4288064697
0.16818076 0.15359855 0.050654292 4288064697
0.16739142 0.15355104 0.050594687 4288064697
0.1666123 0.15348738 0.050500393 4288064697
0.16585004 0.1533969 0.050348997 4288064697
0.16509184 0.15329993 0.050183415 4288064697
0.16435799 0.15316391 0.049934506 4288064697
0.16362408 0.15302789 0.049685597 4288064697
0.16290107 0.15287399 0.049398541 4288064697
0.16219166 0.15269816 0.049064279 4288064697
0.16148275 0.15252101 0.048727512 4288064697
0.16080448 0.1522941 0.048284292 4288064697
0.16015348 0.1520226 0.047745585 4288064697
0.15956548 0.15164828 0.046987295 4288064697
0.15903705 0.15117627 0.046019912 4288064697
0.15861544 0.15052915 0.044678211 4288064697
0.15823326 0.14981574 0.043195009 4288064697
0.15794161 0.14895231 0.041390896 4288064697
0.15763012 0.1481185 0.039650083 4288064697
0.18686596 0.15460008 0.049975753 4288064697
0.18604377 0.15459859 0.050014615 4288064697
0.18522176 0.1545971 0.050053835 4288064697
0.18441334 0.15457511 0.050048947 4288064697
0.18360415 0.15455461 0.050047278 4288064697
0.18279925 0.1545276 0.050031781 4288064697
0.18197697 0.15452754 0.050073743 4288064697
0.18116745 0.15450817 0.050074339 4288064697
0.1803548 0.15449375 0.050085664 4288064697
0.17955673 0.15445709 0.050049424 4288064697
0.17874047 0.15444869 0.050073743 4288064697
0.17791972 0.15444756 0.05011344 4288064697
0.17711043 0.1544289 0.050115585 4288064697
0.17629805 0.15441519 0.050128579 4288064697
0.17548171 0.15440804 0.050155282 4288064697
0.17464668 0.15443015 0.050245047 4288064697
0.1738385 0.15441072 0.050245643 4288064697
0.17301556 0.15441459 0.050296068 4288064697
0.17219862 0.15440935 0.050327063 4288064697
0.17137939 0.1544081 0.050366521 4288064697
0.17055976 0.15440762 0.050407648 4288064697
0.16974503 0.15439969 0.05043292 4288064697
0.16894463 0.15436941 0.050410271 4288064697
0.16815126 0.15432811 0.050364017 4288064697
0.16736969 0.15426832 0.050278187 4288064697
0.16659674 0.15419483 0.050162911 4288064697
0.16584244 0.15409172 0.049984336 4288064697
0.16509238 0.15398169 0.049790859 4288064697
0.16435578 0.15385014 0.049551249 4288064697
0.16362259 0.15371287 0.049299479 4288064697
0.1629037 0.15355253 0.048998356 4288064697
0.16219816 0.15337038 0.048650503 4288064697
0.16151595 0.15315032 0.048221469 4288064697
0.16085595 0.1528939 0.047714591 4288064697
0.16026095 0.15253186 0.046981692 4288064697
0.15972212 0.15207791 0.046052217 4288064697
0.15926787 0.1514855 0.044826031 4288064697
0.15888813 0.15077019 0.043336868 4288064697
0.15842792 0.1501835 0.042123318 4288064697
0.1580857 0.14940262 0.040493846 4288064697
0.18903342 0.15199137 0.042519212 4288064697
0.18611863 0.15517008 0.049381733 4288064697
0.18517077 0.15536028 0.049832225 4288064697
0.18433574 0.15537906 0.049914956 4288064697
0.18350956 0.15538448 0.049969077 4288064697
0.18269056 0.1553793 0.05000031 4288064697
0.18188086 0.1553601 0.050001502 4288064697
0.18106288 0.15535384 0.05003047 4288064697
0.18024418 0.15534902 0.050062656 4288064697
0.17942098 0.15535128 0.050109863 4288064697
0.17861068 0.15533388 0.050114989 4288064697
0.17779192 0.15532994 0.050148964 4288064697
0.17698589 0.1553064 0.050140858 4288064697
0.17617565 0.15528965 0.050147295 4288064697
0.17536074 0.15528047 0.050169945 4288064697
0.17453942 0.15528142 0.05021441 4288064697
0.17373118 0.15526223 0.050215602 4288064697
0.17291644 0.15525341 0.050239205 4288064697
0.17211422 0.15522528 0.050221324 4288064697
0.17130786 0.15520388 0.050217628 4288064697
0.17050415 0.15517843 0.050205469 4288064697
0.16970256 0.15514982 0.050186515 4288064697
0.16891089 0.15510583 0.05013454 4288064697
0.16812521 0.15505236 0.05006218 4288064697
0.16735417 0.15497583 0.049940586 4288064697
0.16659167 0.15488571 0.049789667 4288064697
0.16584006 0.1547783 0.049601674 4288064697
0.16508853 0.1546706 0.049413204 4288064697
0.16435596 0.15453255 0.049159646 4288064697
0.16363701 0.15437251 0.048858881 4288064697
0.16292986 0.15419334 0.048517108 4288064697
0.16224727 0.15397435 0.048089981 4288064697
0.16159531 0.1537056 0.047556281 4288064697
0.16097626 0.15338314 0.046907544 4288064697
0.16040161 0.15298808 0.04610312 4288064697
0.15995368 0.15238708 0.044857383 4288064697
0.1594682 0.15184492 0.04373765 4288064697
0.15909043 0.15112633 0.042239904 4288064697
0.15867814 0.15046149 0.040857553 4288064697
0.15821847 0.14987177 0.039636254 4288064697
0.18799061 0.15300846 0.042876959 4288064697
0.1854299 0.15565085 0.048595667 4288064697
0.18433151 0.15607071 0.049540162 4288064697
0.18345115 0.15615892 0.049772382 4288064697
0.18261299 0.15618312 0.049867034 4288064697
0.18179527 0.15617633 0.04989481 4288064697
0.18097088 0.15618002 0.049945354 4288064697
0.18015337 0.15617341 0.049973845 4288064697
0.17933574 0.15616727 0.050003171 4288064697
0.17852542 0.15614998 0.050008774 4288064697
0.17769817 0.15615934 0.050071359 4288064697
0.17688349 0.15614939 0.050092578 4288064697
0.1760633 0.1561482 0.050132751 4288064697
0.17525545 0.15612811 0.050132275 4288064697
0.17444098 0.15611857 0.050154328 4288064697
0.17363796 0.15609151 0.050138712 4288064697
0.17283314 0.15606731 0.050129294 4288064697
0.17203608 0.15603119 0.050094366 4288064697
0.17124382 0.15598774 0.050043583 4288064697
0.17045549 0.15593821 0.049979806 4288064697
0.16966981 0.15588456 0.049907207 4288064697
0.16888908 0.15582323 0.049818158 4288064697
0.16811129 0.15575731 0.049719214 4288064697
0.16734475 0.15567362 0.049582124 4288064697
0.16658583 0.1555779 0.049419284 4288064697
0.16583961 0.15546179 0.049212694 4288064697
0.16509449 0.15534389 0.049002051 4288064697
0.16437721 0.15518147 0.048696041 4288064697
0.16366744 0.15500677 0.048363447 4288064697
0.16298321 0.15479088 0.047942758 4288064697
0.16235778 0.1544801 0.047318339 4288064697
0.16174904 0.15414166 0.046634555 4288064697
0.16117364 0.15374863 0.045833707 4288064697
0.16065913 0.15325642 0.044819832 4288064697
0.16018096 0.15270382 0.043676734 4288064697
0.15971506 0.15212971 0.042487383 4288064697
0.15929702 0.15147626 0.041127801 4288064697
0.15884033 0.1508835 0.039898515 4288064697
0.18713769 0.15373701 0.042616129 4288064697
0.18501875 0.15570813 0.046898127 4288064697
0.18354672 0.15669811 0.049069881 4288064697
0.18259481 0.15689588 0.049538136 4288064697
0.1817393 0.1569469 0.049690604 4288064697
0.18090662 0.15696341 0.049768806 4288064697
0.18008253 0.15696698 0.04981935 4288064697
0.17927274 0.15694875 0.049822927 4288064697
0.17844996 0.15695083 0.049870133 4288064697
0.17763683 0.15693831 0.049886107 4288064697
0.17682514 0.15692383 0.04989779 4288064697
0.17600122 0.15692848 0.0499506 4288064697
0.17518815 0.15691662 0.049967885 4288064697
0.17437774 0.15690088 0.049976707 4288064697
0.17357722 0.15686977 0.049952745 4288064697
0.17278382 0.15682787 0.049905539 4288064697
0.17199212 0.1567834 0.04985249 4288064697
0.17120957 0.15672469 0.049769163 4288064697
0.17042801 0.15666461 0.049682736 4288064697
0.16965184 0.15659595 0.049578071 4288064697
0.16887644 0.15652621 0.049470901 4288064697
0.16810527 0.15644985 0.049349427 4288064697
0.16734797 0.15635157 0.049180865 4288064697
0.16658899 0.15625578 0.049017906 4288064697
0.16585746 0.15611643 0.04876101 4288064697
0.16512772 0.15597397 0.048497677 4288064697
0.16443032 0.15577984 0.04812324 4288064697
0.16375232 0.15555429 0.047681332 4288064697
0.16312832 0.15524173 0.047052503 4288064697
0.16250846 0.15492189 0.046407938 4288064697
0.16195142 0.15450019 0.045544624 4288064697
0.16138414 0.1540938 0.044714332 4288064697
0.16089758 0.15355617 0.04360199 4288064697
0.16035697 0.15310407 0.042673469 4288064697
0.15990487 0.1525076 0.041434765 4288064697
0.15941912 0.15196371 0.040309191 4288064697
0.18631661 0.15441722 0.042251825 4288064697
0.18449724 0.15593278 0.045558095 4288064697
0.18299419 0.15697032 0.047835112 4288064697
0.18180862 0.15752566 0.049073577 4288064697
0.18089023 0.15767318 0.049434066 4288064697
0.18004903 0.15770298 0.049541354 4288064697
0.17922154 0.15771198 0.04960382 4288064697
0.17839819 0.15771502 0.049653292 4288064697
0.17758611 0.1577009 0.049665928 4288064697
0.17676607 0.15769929 0.049705505 4288064697
0.17594358 0.15770179 0.049753785 4288064697
0.1751242 0.15769976 0.049792528 4288064697
0.17431501 0.15768206 0.049797297 4288064697
0.17351982 0.1576429 0.049755931 4288064697
0.17273656 0.15758514 0.04967463 4288064697
0.17195335 0.15752745 0.049593329 4288064697
0.17118087 0.15745312 0.049476266 4288064697
0.17040765 0.15737981 0.049361587 4288064697
0.16963872 0.15729982 0.049232364 4288064697
0.16887155 0.15721714 0.049097419 4288064697
0.16811052 0.15712464 0.048941255 4288064697
0.16737065 0.15699869 0.048713207 4288064697
0.16662166 0.15688705 0.048516035 4288064697
0.16590533 0.1567235 0.048207045 4288064697
0.16520533 0.15653366 0.047841549 4288064697
0.16453126 0.15630215 0.047386408 4288064697
0.16392019 0.15596962 0.046713948 4288064697
0.16333523 0.15559447 0.045949817 4288064697
0.16274312 0.15522969 0.045207977 4288064697
0.1621587 0.15485156 0.044437528 4288064697
0.16165105 0.15434897 0.043399334 4288064697
0.16115591 0.15382487 0.042315006 4288064697
0.16062391 0.1533584 0.041354656 4288064697
0.16013381 0.15282285 0.040245771 4288064697
0.15966341 0.15225387 0.039065123 4288064697
0.18556651 0.1549893 0.041654587 4288064697
0.18409261 0.15597838 0.043830037 4288064697
0.18270701 0.15683609 0.045722246 4288064697
0.1812968 0.15773475 0.047702432 4288064697
0.18016639 0.15820736 0.048764229 4288064697
0.17923284 0.15837908 0.049177647 4288064697
0.17837885 0.15842909 0.049328566 4288064697
0.17754611 0.15844679 0.049409866 4288064697
0.17672178 0.1584518 0.049463749 4288064697
0.17590556 0.1584447 0.049491644 4288064697
0.17509153 0.15843421 0.049512267 4288064697
0.17427978 0.15842056 0.049525976 4288064697
0.17349014 0.1583727 0.049466133 4288064697
0.17270809 0.1583131 0.049380779 4288064697
0.17193374 0.15824163 0.049269915 4288064697
0.17117187 0.15815055 0.04911685 4288064697
0.17041209 0.15805614 0.048956752 4288064697
0.16965738 0.1579538 0.048779368 4288064697
0.16890654 0.15784526 0.048588634 4288064697
0.16816488 0.15772218 0.048366427 4288064697
0.16744354 0.15756679 0.048074961 4288064697
0.16673389 0.15739262 0.047743082 4288064697
0.16604504 0.15718526 0.04733932 4288064697
0.16540441 0.15690082 0.046769738 4288064697
0.16480595 0.15654856 0.046054244 4288064697
0.16418144 0.15623683 0.045426011 4288064697
0.1636264 0.1558134 0.044556975 4288064697
0.16304159 0.15543628 0.043788075 4288064697
0.16247499 0.15502894 0.042953968 4288064697
0.16190353 0.15462822 0.042134047 4288064697
0.16136983 0.15416563 0.041181087 4288064697
0.16089353 0.15360922 0.040026069 4288064697
0.16037616 0.15311736 0.039009929 4288064697
0.18496963 0.15532744 0.040552258 4288064697
0.18359089 0.15617138 0.042417169 4288064697
0.18232474 0.15684623 0.043916941 4288064697
0.18106636 0.15751177 0.045396805 4288064697
