# .PCD v0.7 - Point Cloud Data file format
VERSION 0.7
FIELDS x y z rgba
SIZE 4 4 4 4
TYPE F F F U
COUNT 1 1 1 1
WIDTH 1321
HEIGHT 1
VIEWPOINT 0 0 0 1 0 0 0
POINTS 1321
DATA ascii
0.21216914 0.12614453 0.049751163 0
0.21146205 0.12595737 0.049401164 0
0.21079555 0.1257087 0.048924327 0
0.21016172 0.12541026 0.048345089 0
0.20954224 0.12508929 0.04771924 0
0.20901945 0.12462133 0.046790361 0
0.2085335 0.12409604 0.045743346 0
0.20811453 0.12346756 0.044483304 0
0.20767882 0.1228627 0.043272376 0
0.20721671 0.12229651 0.042140961 0
0.20683083 0.12161219 0.04076612 0
0.20640659 0.12098449 0.039507985 0
0.14644191 0.12432319 0.048929334 0
0.1456227 0.12432301 0.048965216 0
0.14480963 0.12431252 0.048979878 0
0.14400533 0.12428701 0.048963547 0
0.14320084 0.12426198 0.048948169 0
0.14239255 0.12424386 0.048947215 0
0.14156574 0.1242584 0.049013257 0
0.14075732 0.12424105 0.049013853 0
0.13993099 0.12425536 0.049079418 0
0.13912335 0.12423718 0.049078107 0
0.13830325 0.12424105 0.049122334 0
0.13748041 0.12425011 0.049177408 0
0.1366702 0.1242373 0.049187064 0
0.13584819 0.12424558 0.049240232 0
0.1350255 0.12425542 0.049296856 0
0.1342116 0.12424988 0.049321651 0
0.13339749 0.12424511 0.049347997 0
0.13257393 0.12425739 0.049409509 0
0.13176236 0.12424856 0.049427629 0
0.13094589 0.1242488 0.049464345 0
0.13013828 0.12423342 0.049468875 0
0.1293284 0.1242224 0.049482346 0
0.12852955 0.1241917 0.049455404 0
0.12773368 0.12415588 0.049417973 0
0.12694973 0.12409854 0.049336076 0
0.12617722 0.1240204 0.049211621 0
0.12541673 0.12392068 0.049042583 0
0.12466267 0.12380898 0.048848867 0
0.12391445 0.12368649 0.048633218 0
0.12317839 0.12354159 0.048371315 0
0.12244329 0.12339467 0.048105359 0
0.12173775 0.1231932 0.047727108 0
0.12104765 0.12296271 0.047289252 0
0.12039861 0.12265599 0.046694398 0
0.11980107 0.12225318 0.045902014 0
0.11926135 0.12174201 0.044886708 0
0.11880335 0.12107754 0.043556333 0
0.1183565 0.12039 0.042178273 0
0.11791462 0.11969078 0.040776372 0
0.11753795 0.11886728 0.039118886 0
0.24177864 0.12865961 0.051783085 0
0.24004021 0.1299364 0.05445838 0
0.23933437 0.12737906 0.049281955 0
0.23862997 0.12718999 0.048927426 0
0.23727599 0.1255343 0.045615077 0
0.23657241 0.12534088 0.045252085 0
0.2350426 0.12633371 0.047340035 0
0.23332289 0.12760293 0.049999118 0
0.23234561 0.12780708 0.050457358 0
0.23149124 0.12783468 0.050550818 0
0.23064211 0.12785518 0.050629497 0
0.22981444 0.12784505 0.050644755 0
0.2289826 0.12784117 0.050673246 0
0.22815195 0.12783575 0.0506984 0
0.22731963 0.12783301 0.050729036 0
0.22647968 0.12784159 0.050783038 0
0.22563997 0.12785023 0.050837398 0
0.22480568 0.12785125 0.050875783 0
0.22398159 0.12783754 0.05088377 0
0.22315785 0.12782353 0.05089128 0
0.22234055 0.12780035 0.050879717 0
0.22152427 0.12777585 0.050865293 0
0.22071621 0.12773937 0.05082655 0
0.21990624 0.12770599 0.050793767 0
0.21910432 0.12766081 0.050736785 0
0.21830121 0.12761748 0.050683618 0
0.21750417 0.12756526 0.050612092 0
0.2167168 0.12749881 0.05051136 0
0.21593747 0.12742049 0.050385833 0
0.21516475 0.12733233 0.050240159 0
0.21441147 0.12721509 0.050034285 0
0.21366063 0.12709403 0.049820781 0
0.21293375 0.12693709 0.04953289 0
0.21221241 0.12677151 0.049227476 0
0.21152928 0.12654841 0.048802972 0
0.21094856 0.12617052 0.048058987 0
0.21033058 0.12584794 0.047429442 0
0.20973626 0.1254887 0.046723962 0
0.20920685 0.12503052 0.045814395 0
0.2088066 0.12437528 0.044497848 0
0.20839992 0.12372798 0.04319787 0
0.20784724 0.12330067 0.04235208 0
0.20748058 0.12258911 0.040919304 0
0.20705345 0.12196749 0.039672613 0
0.14696357 0.12410432 0.046673417 0
0.1456047 0.12503725 0.048632622 0
0.14475724 0.12508637 0.048770308 0
0.14393803 0.12508696 0.04880774 0
0.14311644 0.12509185 0.048854232 0
0.1423032 0.12508243 0.048871398 0
0.14148507 0.12508202 0.048906684 0
0.14067072 0.12507504 0.048928857 0
0.13983819 0.12510037 0.049017549 0
0.13901773 0.12510496 0.049063325 0
0.13820344 0.12509888 0.049087167 0
0.13738161 0.12510639 0.049139023 0
0.13656923 0.12509751 0.049157143 0
0.13575622 0.12509006 0.049178123 0
0.13493523 0.12509698 0.049228787 0
0.1341233 0.12508827 0.049247265 0
0.13331765 0.12506843 0.049242735 0
0.13250503 0.12506139 0.049264669 0
0.1317009 0.1250394 0.049255729 0
0.13089851 0.12501448 0.049240828 0
0.13009718 0.12498784 0.049222231 0
0.12929693 0.12495953 0.049200416 0
0.1285058 0.12491482 0.049144745 0
0.12771901 0.12486255 0.049073339 0
0.12694064 0.12479508 0.048970819 0
0.12617239 0.12470931 0.04883039 0
0.12541354 0.12460643 0.048654914 0
0.12466136 0.12449133 0.048454165 0
0.12391713 0.12436152 0.048223257 0
0.12318963 0.12420094 0.047928929 0
0.1224663 0.12403238 0.047618151 0
0.12176332 0.12382615 0.047229767 0
0.12111261 0.12352329 0.046642423 0
0.12052324 0.12310648 0.045820475 0
0.11999029 0.12258422 0.044781327 0
0.11942035 0.12212855 0.043879509 0
0.11896285 0.12146306 0.042545319 0
0.11850893 0.12078857 0.04119277 0
0.11807492 0.12007451 0.03975904 0
0.23941192 0.12796438 0.048666596 0
0.23906425 0.12726748 0.047261119 0
0.23827764 0.1271944 0.047146678 0
0.23814103 0.12619323 0.045111895 0
0.23756006 0.12582463 0.044386029 0
0.23682091 0.12568182 0.044127107 0
0.23604068 0.12559766 0.043989658 0
0.23471573 0.1262961 0.045471311 0
0.23270646 0.1279819 0.048995495 0
0.2315065 0.12850666 0.050117612 0
0.23059955 0.12861049 0.050369024 0
0.22975364 0.1286267 0.050439 0
0.2289212 0.12862366 0.050469279 0
0.22808668 0.12862396 0.050506353 0
0.22725847 0.1286152 0.050524712 0
0.22642484 0.12861472 0.050560355 0
0.22559425 0.12861001 0.050587296 0
0.22476199 0.12860793 0.050619483 0
0.22394195 0.12858832 0.05061543 0
0.22311679 0.1285764 0.050627232 0
0.22229788 0.12855566 0.050620914 0
0.22149119 0.12851703 0.050577521 0
0.22068378 0.12847972 0.050536871 0
0.21987656 0.12844205 0.050495625 0
0.21908286 0.12838477 0.050413609 0
0.21828964 0.12832683 0.050330281 0
0.2174975 0.12826729 0.050243735 0
0.21671858 0.12818837 0.050117016 0
0.21595123 0.12809217 0.049954653 0
0.21518305 0.12799704 0.049794674 0
0.21444216 0.12786126 0.049550414 0
0.21370259 0.1277234 0.049301982 0
0.21301261 0.12751114 0.048899651 0
0.21233562 0.12727892 0.048456192 0
0.21167001 0.12702918 0.047976255 0
0.21110687 0.12662482 0.047176838 0
0.21057793 0.12616789 0.046268821 0
0.21006408 0.12568694 0.045311213 0
0.20949563 0.12528712 0.044521213 0
0.20899037 0.12479061 0.043531656 0
0.20854488 0.12420213 0.042351842 0
0.2080577 0.12367523 0.041299462 0
0.20759118 0.12311554 0.040179133 0
0.14647281 0.12421781 0.04513526 0
0.14481649 0.12566656 0.048161268 0
0.1439074 0.12582284 0.048520565 0
0.14305976 0.12587315 0.048660874 0
0.14223167 0.12588972 0.048731446 0
0.14141595 0.12588507 0.048758626 0
0.14059803 0.12588459 0.04879415 0
0.13977504 0.12589324 0.048848629 0
0.13895163 0.12590307 0.048905253 0
0.13813487 0.12590146 0.048938513 0
0.13730511 0.12592298 0.049019694 0
0.13649157 0.1259163 0.049042463 0
0.13567719 0.12591147 0.049069047 0
0.13486674 0.12589991 0.049081683 0
0.13405511 0.12589055 0.049098969 0
0.1332542 0.12586248 0.04907763 0
0.13245252 0.12583596 0.049059391 0
0.13165393 0.12580413 0.049030304 0
0.13085744 0.12576866 0.048993826 0
0.13006446 0.12572718 0.048944712 0
0.12927601 0.12567753 0.048879027 0
0.12849003 0.12562358 0.048804402 0
0.12770918 0.12556052 0.048710704 0
0.12693933 0.12547767 0.048576355 0
0.12617221 0.12538981 0.048431873 0
0.1254167 0.12528086 0.048243642 0
0.12467405 0.12514824 0.048006892 0
0.12394401 0.12499249 0.04772234 0
0.12323165 0.1248042 0.047370672 0
0.12252936 0.12459707 0.046980023 0
0.1218529 0.12434196 0.04649055 0
0.12124878 0.12395334 0.045725822 0
0.120729 0.12340826 0.044638634 0
0.12019402 0.12288922 0.04360497 0
0.1196489 0.12238723 0.042606592 0
0.11915183 0.12179458 0.041421533 0
0.11869633 0.12112284 0.040073037 0
0.24084815 0.1325385 0.056130528 0
0.23836938 0.12775987 0.046488047 0
0.23808035 0.12697673 0.044902682 0
0.23779431 0.12618715 0.043303967 0
0.23754975 0.12533605 0.041578054 0
0.23692665 0.12502491 0.040970564 0
0.2355555 0.12578702 0.04258585 0
0.23414722 0.12660503 0.044317126 0
0.23231003 0.12804371 0.047333717 0
0.23072639 0.12912154 0.049602628 0
0.22975138 0.12932372 0.050058126 0
0.22889462 0.12935573 0.050161242 0
0.22804561 0.12937695 0.050241828 0
0.22722223 0.12936121 0.050246 0
0.22638258 0.12936944 0.050299883 0
0.22555974 0.12935334 0.050303102 0
0.22472468 0.12935549 0.050344229 0
0.22390434 0.12933624 0.050341129 0
0.22307965 0.12932366 0.050351858 0
0.22226945 0.12928998 0.050318837 0
0.22146019 0.12925518 0.050283551 0
0.22065648 0.12921232 0.050231457 0
0.21985659 0.12916398 0.050168157 0
0.21906486 0.12910372 0.050079942 0
0.21828118 0.12903154 0.049967289 0
0.21750852 0.12894326 0.049821377 0
0.21673194 0.12886071 0.049687147 0
0.21598604 0.12873262 0.049458623 0
0.21524218 0.12860125 0.049223423 0
0.21452782 0.1284259 0.048897266 0
0.21380672 0.12826014 0.048590899 0
0.21315375 0.12799239 0.04807353 0
0.21255597 0.12764132 0.047383547 0
0.21194175 0.12731409 0.046742916 0
0.21137914 0.12690842 0.045940161 0
0.21082148 0.12649429 0.045119762 0
0.21026471 0.12607765 0.044294357 0
0.20976141 0.1255793 0.043299675 0
0.20926389 0.12507081 0.04228425 0
0.20868054 0.12469089 0.041534781 0
0.2082254 0.12411535 0.040380716 0
0.20781463 0.1234709 0.039083838 0
0.14585781 0.12454551 0.044037342 0
0.14409259 0.12618428 0.047459602 0
0.14307988 0.12652081 0.048191428 0
0.14220142 0.12662488 0.048443317 0
0.14136797 0.12665123 0.048534393 0
0.14054182 0.12666506 0.04859972 0
0.13972238 0.12666762 0.048641801 0
0.13890192 0.12667227 0.048688173 0
0.13808471 0.12667143 0.04872334 0
0.13726458 0.12667614 0.048769593 0
0.1364499 0.12667143 0.048796654 0
0.1356363 0.12666523 0.048820496 0
0.13482633 0.12665272 0.048831463 0
0.13401744 0.12663859 0.048838973 0
0.1332188 0.12660646 0.048809409 0
0.13242239 0.12657058 0.048772097 0
0.13162872 0.12652993 0.04872489 0
0.13083693 0.12648606 0.048671126 0
0.1300517 0.12643063 0.048593163 0
0.12926605 0.12637591 0.048517108 0
0.12848601 0.1263113 0.04842031 0
0.12771094 0.12623775 0.048305273 0
0.12694603 0.12614578 0.048152208 0
0.12619036 0.12603712 0.047964454 0
0.1254355 0.12592685 0.047773719 0
0.12471655 0.1257512 0.047447801 0
0.12398621 0.12559587 0.047163725 0
0.12330595 0.12534881 0.046690583 0
0.12265739 0.12504315 0.046096325 0
0.12203747 0.12468415 0.045392036 0
0.12146804 0.12423134 0.044494033 0
0.12093022 0.12371898 0.043473125 0
0.12040702 0.12317789 0.042392969 0
0.11987177 0.12265712 0.041355014 0
0.11932245 0.12216079 0.040367365 0
0.11883295 0.12155187 0.039147258 0
0.054901809 0.12633008 0.051802754 0
0.054335207 0.12581694 0.050782323 0
0.053670287 0.12551737 0.050201654 0
0.052922636 0.12539846 0.049993515 0
0.052160442 0.12531143 0.049850941 0
0.051383168 0.12525755 0.049776673 0
0.050615996 0.1251815 0.049656987 0
0.049850434 0.1251018 0.049529433 0
0.049069107 0.1250571 0.04947412 0
0.048249006 0.12509894 0.049597144 0
0.047402918 0.12519932 0.049840808 0
0.23942772 0.13051963 0.05026865 0
0.23914179 0.12973893 0.048686266 0
0.23872796 0.12913769 0.047476292 0
0.23821333 0.12867826 0.046560645 0
0.23789945 0.12793154 0.045049071 0
0.23779491 0.12688392 0.042913556 0
0.2376987 0.12582135 0.040747166 0
0.23744127 0.12498647 0.039053082 0
0.23656842 0.12503183 0.039184332 0
0.2352176 0.12576419 0.040740013 0
0.23360434 0.12687671 0.043084145 0
0.23203012 0.12793678 0.0453192 0
0.23024842 0.12930012 0.048182964 0
0.22900459 0.12989044 0.049443841 0
0.2281132 0.12997252 0.049651027 0
0.22723344 0.13003832 0.049824357 0
0.2263768 0.13007098 0.049929023 0
0.22555158 0.13005841 0.049939871 0
0.22470906 0.13007122 0.05000329 0
0.22389367 0.13004476 0.049985528 0
0.22306016 0.130045 0.050022721 0
0.22225586 0.13000268 0.049971938 0
0.22145334 0.12995791 0.049916148 0
0.22066501 0.12989235 0.049817204 0
0.21986338 0.12984645 0.049758911 0
0.21909389 0.12975335 0.049602747 0
0.21832517 0.129659 0.049444079 0
0.21757171 0.12954211 0.04923892 0
0.21682379 0.12941694 0.049016356 0
0.21609309 0.12926602 0.048740387 0
0.21538666 0.12907875 0.048389435 0
0.21470115 0.12886012 0.047973156 0
0.21401343 0.12864423 0.047562718 0
0.213393 0.12832749 0.046943307 0
0.212845 0.12790161 0.046097755 0
0.21223608 0.12756586 0.045438886 0
0.21162263 0.12723613 0.044792533 0
0.21104422 0.12685281 0.044035316 0
0.21052304 0.12638235 0.043097615 0
0.21005234 0.12583447 0.04199934 0
0.20948938 0.12542439 0.04118681 0
0.20900175 0.12489927 0.04013586 0
0.2085211 0.12436205 0.039059877 0
0.14713368 0.12302184 0.039071679 0
0.14519569 0.12495446 0.043105841 0
0.14371276 0.12610394 0.045520306 0
0.14232203 0.12709749 0.047611952 0
0.1413829 0.12730753 0.048083425 0
0.14052221 0.12738156 0.048273563 0
0.13968763 0.12741047 0.048370123 0
0.13886258 0.12742323 0.048433304 0
0.13805041 0.12741351 0.048450232 0
0.13722947 0.12741959 0.048499703 0
0.13641456 0.1274153 0.048527718 0
0.13560081 0.12740934 0.048552275 0
0.13479552 0.12738854 0.048546314 0
0.13398722 0.12737334 0.048551798 0
0.13319084 0.12733722 0.048514128 0
0.13239649 0.12729764 0.048469067 0
0.13161084 0.12724268 0.048392534 0
0.13082182 0.12719387 0.048328519 0
0.13004658 0.12712038 0.048213482 0
0.12926397 0.12706023 0.048126101 0
0.12849891 0.1269685 0.047973275 0
0.12772691 0.12688929 0.047846556 0
0.12697259 0.12677819 0.047653794 0
0.12622306 0.12665832 0.047443032 0
0.12550598 0.12647933 0.047109962 0
0.12481758 0.12624794 0.046668649 0
0.12411013 0.12605071 0.046297789 0
0.12349766 0.12567967 0.04556787 0
0.12286481 0.12534475 0.044912696 0
0.12224498 0.12498504 0.044206262 0
0.12168762 0.12450963 0.043260574 0
0.12112364 0.12404484 0.04233706 0
0.12057397 0.12355202 0.041355848 0
0.12006539 0.12298191 0.040214539 0
0.1195567 0.12241006 0.039069891 0
0.056780785 0.12639803 0.050082445 0
0.056033522 0.12627852 0.049872875 0
0.055275291 0.12618268 0.049712181 0
0.054504186 0.12611485 0.049609184 0
0.053727448 0.12605935 0.049531698 0
0.052955478 0.12599361 0.049432874 0
0.052180022 0.12593532 0.049349785 0
0.051406413 0.12587333 0.049258709 0
0.050624698 0.1258291 0.049204588 0
0.049848825 0.12577212 0.049124002 0
0.049072504 0.12571615 0.049045563 0
0.048300892 0.12564987 0.048945665 0
0.047528505 0.12558526 0.048849463 0
0.046764016 0.12550312 0.048717022 0
0.045993894 0.1254335 0.048610568 0
0.045235723 0.125337 0.048448563 0
0.044477075 0.12524152 0.048288584 0
0.043717414 0.12514818 0.048133016 0
0.23967853 0.13322109 0.053974271 0
0.2395933 0.13216239 0.051813006 0
0.23902491 0.13178438 0.051065207 0
0.23864904 0.13113266 0.049748898 0
0.23862305 0.12998241 0.047397852 0
0.23811999 0.12950706 0.046448112 0
0.2376388 0.12899935 0.045431137 0
0.23470697 0.12598878 0.039404631 0
0.23313525 0.12704176 0.041627884 0
0.23155186 0.12811506 0.043893218 0
0.23004583 0.12908036 0.0459342 0
0.22867563 0.12985259 0.047574401 0
0.22755274 0.13026917 0.048476219 0
0.22660306 0.13043606 0.048859835 0
0.22568837 0.13055277 0.049139261 0
0.2248309 0.13058698 0.049247265 0
0.22399691 0.13058716 0.049284935 0
0.22320405 0.13052762 0.049198389 0
0.22246757 0.1303857 0.048940897 0
0.22198328 0.12987393 0.047916055 0
0.22116765 0.12984717 0.047897458 0
0.22020391 0.13003832 0.048331499 0
0.21935907 0.13005531 0.048403859 0
0.21866974 0.12984324 0.048000813 0
0.21783987 0.12983841 0.048027992 0
0.21714035 0.12964094 0.047655225 0
0.21638039 0.12953264 0.047467709 0
0.21568784 0.12932414 0.047072291 0
0.21498576 0.12912947 0.046705484 0
0.21432623 0.12887102 0.046206594 0
0.21375206 0.12848461 0.045441985 0
0.21311447 0.12819195 0.044871926 0
0.21250406 0.12785792 0.044216156 0
0.21195379 0.12743306 0.043371797 0
0.21137217 0.12705392 0.042622685 0
0.21079645 0.126665 0.04185307 0
0.21022126 0.12627423 0.04107964 0
0.20975378 0.1257199 0.03996706 0
0.14459023 0.12526447 0.041968584 0
0.1431872 0.1262756 0.04409945 0
0.141828 0.12721443 0.046080351 0
0.14066356 0.12781703 0.047365189 0
0.13972601 0.12802553 0.04783392 0
0.13885632 0.12811601 0.04805851 0
0.13802692 0.12813669 0.048138261 0
0.13719851 0.12815577 0.048214912 0
0.13639107 0.12813824 0.048215747 0
0.13557616 0.12813419 0.048244596 0
0.13476756 0.12811935 0.048250914 0
0.13396767 0.12808919 0.048225522 0
0.1331774 0.12804216 0.048165441 0
0.13238379 0.12800115 0.048117638 0
0.13159966 0.12794346 0.048035264 0
0.13082606 0.12786704 0.047914028 0
0.13005951 0.12777805 0.047767043 0
0.12928531 0.12770259 0.047647953 0
0.12853292 0.12758797 0.04744792 0
0.12778983 0.12745667 0.047213197 0
0.12704793 0.12732273 0.046973228 0
0.12634149 0.12712461 0.046600342 0
0.12562683 0.12694103 0.046257615 0
0.12498143 0.12663114 0.045653462 0
0.12432781 0.12633544 0.045078754 0
0.12371269 0.12596869 0.044356942 0
0.1231207 0.12555867 0.043545723 0
0.12250918 0.12518299 0.042805552 0
0.12194994 0.12471038 0.041864872 0
0.1213699 0.12427443 0.041000009 0
0.12079802 0.12382191 0.040100932 0
0.12027398 0.12327975 0.039016485 0
0.059038341 0.12738931 0.050228357 0
0.058297932 0.1272555 0.049988985 0
0.057547301 0.1271435 0.049794793 0
0.056785613 0.12705535 0.049649835 0
0.056016415 0.12698328 0.049538255 0
0.055246651 0.12691265 0.049429536 0
0.054472387 0.1268518 0.049340725 0
0.053702891 0.12678051 0.049230814 0
0.052926689 0.126724 0.049151182 0
0.052146107 0.1266771 0.049091458 0
0.051368237 0.12662452 0.049019933 0
0.050588012 0.12657702 0.048959136 0
0.04980725 0.12653095 0.048900962 0
0.049030483 0.12647611 0.048824906 0
0.048254877 0.12641877 0.048743606 0
0.047479272 0.12636155 0.048662782 0
0.046709955 0.12629032 0.048552632 0
0.045944422 0.12621057 0.048425317 0
0.04518041 0.12612742 0.048290849 0
0.044420332 0.12603533 0.048137784 0
0.043655068 0.12595487 0.0480088 0
0.042905062 0.12583983 0.047808647 0
0.042142868 0.12575233 0.047665119 0
0.041383326 0.12565863 0.047508836 0
0.24041596 0.1352241 0.056237221 0
0.23932377 0.13558787 0.057030797 0
0.23902848 0.13247371 0.05066812 0
0.23784742 0.13059038 0.046865106 0
0.23749915 0.1298945 0.045456052 0
0.23263326 0.12725335 0.040266275 0
0.23119393 0.12811899 0.042102695 0
0.22974184 0.12900603 0.043983698 0
0.22840789 0.12972516 0.045515537 0
0.22747812 0.12986088 0.045834899 0
0.22641733 0.13018751 0.046550989 0
0.22542647 0.13041395 0.047059059 0
0.22454146 0.13048691 0.047248006 0
0.22382542 0.13031387 0.046925902 0
0.22339085 0.12972933 0.045748472 0
0.22306839 0.12897879 0.044226527 0
0.22243938 0.12867564 0.043634057 0
0.22108546 0.12943655 0.045252442 0
0.22010365 0.12965286 0.045739174 0
0.21928075 0.12963581 0.045741081 0
0.21856752 0.12945724 0.045407534 0
0.21762934 0.1296109 0.045764327 0
0.21682742 0.12956351 0.045703053 0
0.21608266 0.12943143 0.045466185 0
0.21536621 0.12925732 0.045141697 0
0.21463886 0.12909889 0.044849992 0
0.21398631 0.12882882 0.044326425 0
0.21344426 0.12839317 0.043458819 0
0.21280596 0.12810022 0.042887926 0
0.21221194 0.12774026 0.042177677 0
0.21162811 0.1273641 0.04143393 0
0.2110419 0.12699056 0.040695548 0
0.2104899 0.12656444 0.03984797 0
0.1440905 0.12539017 0.040447593 0
0.14277348 0.1262517 0.042270899 0
0.1415951 0.12687486 0.043599963 0
0.14027205 0.12775356 0.045458674 0
0.13916859 0.12825137 0.046527982 0
0.13818562 0.12854004 0.047163606 0
0.13729483 0.12866813 0.047466516 0
0.1364415 0.12873101 0.047634006 0
0.13563153 0.1287179 0.047644258 0
0.1348106 0.12872458 0.047695279 0
0.13406709 0.12859428 0.047462583 0
0.13323253 0.12862545 0.047564507 0
0.13243973 0.12858272 0.047513127 0
0.13166839 0.12850195 0.04738307 0
0.13091311 0.12839258 0.047193646 0
0.13013843 0.12831765 0.047075748 0
0.12940952 0.12816072 0.046787977 0
0.12864724 0.12806344 0.046623588 0
0.12794873 0.12785149 0.046221733 0
0.1272417 0.12765425 0.045850396 0
0.12657025 0.12739235 0.045345306 0
0.12593141 0.12707072 0.04471612 0
0.12524891 0.12682724 0.044248939 0
0.12457788 0.1265623 0.043737411 0
0.12397215 0.12617779 0.042978168 0
0.12339637 0.12573749 0.042103529 0
0.12274215 0.12543899 0.041522503 0
0.12217996 0.12497121 0.040590882 0
0.12160042 0.12453365 0.039721966 0
0.06052044 0.12832159 0.05028975 0
0.059786826 0.12817365 0.050021172 0
0.059039354 0.12805521 0.049813509 0
0.058282644 0.12795645 0.049646616 0
0.057516247 0.12787855 0.049522758 0
0.056753904 0.12779176 0.04938066 0
0.055989206 0.1277101 0.049249172 0
0.055217177 0.12764448 0.049150586 0
0.054438889 0.12759233 0.049080133 0
0.053667605 0.12752509 0.048978448 0
0.052885532 0.12748146 0.048925519 0
0.052105635 0.12743318 0.048863053 0
0.051328033 0.12737995 0.048790216 0
0.050549537 0.12732887 0.04872191 0
0.049761921 0.12729806 0.048695564 0
0.048982322 0.12724954 0.048632622 0
0.048202366 0.12720203 0.048571587 0
0.047418624 0.12716311 0.048528552 0
0.046649158 0.12709236 0.048419476 0
0.045882136 0.12701625 0.048299551 0
0.045111507 0.12694812 0.048196077 0
0.044344366 0.12687224 0.04807663 0
0.043577433 0.12679583 0.047955871 0
0.042817384 0.12670392 0.047803402 0
0.04205808 0.1266101 0.047646642 0
0.041317821 0.12647307 0.047400832 0
0.040557146 0.12638205 0.047250271 0
0.23905578 0.1331296 0.050201535 0
0.2378554 0.13127482 0.046453834 0
0.23724905 0.13094628 0.045807481 0
0.23209754 0.12751317 0.039002776 0
0.23083737 0.12812006 0.04030323 0
0.22939852 0.12898755 0.042145729 0
0.22819117 0.12952292 0.04329741 0
0.22712895 0.12984955 0.044014573 0
0.22625223 0.12990803 0.044173837 0
0.22525194 0.13014674 0.044708014 0
0.22463891 0.12982184 0.044069648 0
0.22403678 0.12948036 0.043396831 0
0.22334507 0.129269 0.042994857 0
0.22283635 0.12878919 0.042034507 0
0.2220166 0.12876445 0.042020679 0
0.22100899 0.12901604 0.042581677 0
0.22007075 0.12916666 0.04293251 0
0.2191911 0.12923157 0.043105125 0
0.21824917 0.12938899 0.043470263 0
0.21731618 0.12953401 0.043809414 0
0.21654859 0.12943459 0.043640375 0
0.21571347 0.12943542 0.043679595 0
0.21502736 0.12921488 0.043258548 0
0.21432176 0.12902308 0.042897344 0
0.21366242 0.12876171 0.042391419 0
0.21311757 0.1283288 0.041528821 0
0.21247396 0.12804258 0.04097116 0
0.21188632 0.1276716 0.040237546 0
0.21136931 0.12719375 0.039281487 0
0.14233395 0.12627137 0.040529847 0
0.1411033 0.12698543 0.04204917 0
0.14000741 0.12746662 0.043085337 0
0.13894859 0.12788504 0.043991208 0
0.13799164 0.12812638 0.044529676 0
0.13696936 0.12848413 0.045309424 0
0.13616952 0.12845129 0.045278788 0
0.13485208 0.12643564 0.041209221 0
0.13322288 0.12787282 0.044228792 0
0.13212249 0.12837493 0.045307994 0
0.13126588 0.12844461 0.045490026 0
0.13050696 0.12834024 0.045310974 0
0.12970385 0.12831497 0.045296073 0
0.12899244 0.12812537 0.044940233 0
0.12830618 0.12789017 0.04448998 0
0.12758017 0.12772596 0.044186831 0
0.12691078 0.12745911 0.043670893 0
0.12624395 0.12718701 0.043144107 0
0.12556437 0.12693727 0.042663693 0
0.12483239 0.12678194 0.042379022 0
0.12423113 0.12638855 0.041600704 0
0.12361011 0.12603003 0.040894628 0
0.12296817 0.12570846 0.040265441 0
0.12237927 0.12528896 0.039433002 0
0.061996371 0.12926608 0.050377011 0
0.061256081 0.12913305 0.05013895 0
0.06051892 0.12899297 0.049886465 0
0.059767812 0.12888259 0.049695373 0
0.059010535 0.12878525 0.049531221 0
0.058250368 0.12869406 0.049379945 0
0.057488799 0.12860578 0.049234629 0
0.056721777 0.12852919 0.049113512 0
0.055955857 0.12845021 0.048987508 0
0.055185109 0.12838185 0.048883438 0
0.054408908 0.12832522 0.048803687 0
0.053634077 0.12826568 0.048717976 0
0.052852452 0.12822115 0.048663259 0
0.052071363 0.12817568 0.048606515 0
0.051284164 0.12814355 0.048577428 0
0.050501496 0.12810177 0.048528433 0
0.049713194 0.1280725 0.048505425 0
0.048929274 0.12803382 0.048462868 0
0.048145413 0.12799501 0.048420072 0
0.047358006 0.12796444 0.048394322 0
0.046585351 0.12790108 0.048300505 0
0.04580754 0.12784922 0.048230648 0
0.045036972 0.12778133 0.04812777 0
0.044259667 0.12772852 0.048056006 0
0.043499708 0.12763685 0.047903657 0
0.042726427 0.12757504 0.047813296 0
0.041965276 0.12748593 0.04766643 0
0.041202843 0.1273995 0.047525287 0
0.040472984 0.12723905 0.04723084 0
0.039740175 0.12708485 0.046949148 0
0.038980842 0.12699085 0.04679215 0
0.24163547 0.13723594 0.056699157 0
0.24067095 0.13741946 0.057119131 0
0.23901549 0.13388097 0.049933434 0
0.23769668 0.13219577 0.046535134 0
0.23714462 0.13179058 0.045728564 0
0.23030517 0.1283741 0.039027572 0
0.22909328 0.12891322 0.040188432 0
0.22798756 0.12930048 0.04103303 0
0.22697583 0.12955278 0.041596293 0
0.22600046 0.12975317 0.042051554 0
0.22515991 0.12975812 0.042099714 0
0.22440884 0.12963295 0.041876793 0
0.22373715 0.12939149 0.041411877 0
0.2230337 0.12919611 0.041042924 0
0.22242031 0.12886828 0.040397882 0
0.22148696 0.12900943 0.04072988 0
0.22061238 0.12906498 0.040883303 0
0.219731 0.12913096 0.04105866 0
0.21882561 0.12923294 0.04130888 0
0.21785179 0.12943661 0.041770935 0
0.21700671 0.12945062 0.041837931 0
0.21621516 0.12938553 0.041740298 0
0.21544173 0.12929368 0.041586876 0
0.21473584 0.12910122 0.041223884 0
0.21406618 0.12885439 0.040747881 0
0.21338943 0.1286177 0.040292859 0
0.21281508 0.12822723 0.039517999 0
0.21214631 0.12797719 0.03903532 0
0.14071211 0.12691903 0.040128231 0
0.13962945 0.12737626 0.04111588 0
0.1387395 0.12749761 0.041405797 0
0.13784045 0.12763566 0.041730404 0
0.13697726 0.12771136 0.04192543 0
0.1364747 0.12715143 0.040799975 0
0.13596532 0.12660158 0.03969574 0
0.13452619 0.12624246 0.039025545 0
0.13332644 0.12691623 0.040462852 0
0.132101 0.12763864 0.04200089 0
0.13111609 0.12793475 0.04265368 0
0.13022932 0.1280567 0.042944789 0
0.12940618 0.12806565 0.043001175 0
0.12870356 0.12785834 0.04260838 0
0.12799683 0.12765807 0.042230248 0
0.12727126 0.12749118 0.041921496 0
0.12656549 0.12728822 0.041537762 0
0.12586877 0.1270684 0.041119099 0
0.12517127 0.12684941 0.040701985 0
0.12451372 0.12655735 0.040133476 0
0.123889 0.12620479 0.039439201 0
0.062719971 0.13010269 0.050278664 0
0.061984867 0.12995881 0.050018072 0
0.061241478 0.12983251 0.049793601 0
0.060492635 0.12971747 0.049592972 0
0.05973658 0.12961769 0.049423814 0
0.058982044 0.12951452 0.049247622 0
0.058224261 0.12941825 0.049085617 0
0.057461411 0.12933278 0.048946023 0
0.056693882 0.12925744 0.048827529 0
0.055925429 0.12918401 0.048713088 0
0.055152029 0.1291213 0.048620701 0
0.054372221 0.12907267 0.04855752 0
0.053591162 0.12902683 0.04850018 0
0.052806139 0.12898982 0.048461199 0
0.052020848 0.12895352 0.048423529 0
0.051230341 0.12892884 0.048410177 0
0.050437719 0.12890917 0.048406839 0
0.049645573 0.12888861 0.048401952 0
0.048856199 0.12886208 0.048384786 0
0.048069149 0.12883073 0.048357368 0
0.047283679 0.12879604 0.048323154 0
0.046503216 0.12875032 0.048266172 0
0.045722961 0.12870431 0.048208356 0
0.044941723 0.12866062 0.048155427 0
0.044172317 0.12859052 0.0480479 0
0.043400943 0.12852484 0.047949433 0
0.042632163 0.12845337 0.047839165 0
0.041862756 0.12838328 0.047731519 0
0.041098684 0.12830114 0.047599077 0
0.040361047 0.12815887 0.047342062 0
0.039628357 0.12800497 0.047060847 0
0.038887948 0.12786829 0.046815634 0
0.24241641 0.13800174 0.056430697 0
0.24051329 0.13833183 0.05719471 0
0.23985031 0.13575315 0.051927924 0
0.23964807 0.1348623 0.050107241 0
0.23900893 0.13458484 0.049566388 0
0.23846963 0.13416564 0.048729777 0
0.23700961 0.13267815 0.045740485 0
0.22761872 0.12931651 0.039261699 0
0.22661909 0.12955034 0.039787531 0
0.22563949 0.12975621 0.040254831 0
0.22481874 0.12973136 0.040241122 0
0.22406009 0.12961608 0.040038705 0
0.2233226 0.12946969 0.039771676 0
0.22266617 0.12920433 0.039256454 0
0.22183946 0.1291883 0.039261103 0
0.22093549 0.12928599 0.039502978 0
0.22012475 0.12924707 0.039459825 0
0.21923664 0.12932235 0.03965497 0
0.21836331 0.12937635 0.039805532 0
0.21749666 0.12942076 0.039936304 0
0.21667019 0.12940627 0.039944172 0
0.2159358 0.12925529 0.039667487 0
0.21517494 0.12914336 0.039472342 0
0.21446267 0.12895906 0.039126277 0
0.13764897 0.12721342 0.039068341 0
0.1368506 0.12717295 0.039022326 0
0.13265994 0.12732685 0.039532304 0
0.13163432 0.12769324 0.040332198 0
0.13075137 0.12780648 0.040605664 0
0.12984279 0.12796634 0.040975928 0
0.12902755 0.12795961 0.041000009 0
0.12840199 0.12761229 0.040315866 0
0.12766311 0.12746805 0.040053964 0
0.12688282 0.12739819 0.039946675 0
0.12621072 0.12713283 0.039433002 0
0.125507 0.12692398 0.039036751 0
0.06342569 0.1309768 0.050258398 0
0.062701911 0.13080943 0.049948812 0
0.061958283 0.13068384 0.049726009 0
0.061211348 0.13056505 0.049517274 0
0.060462803 0.13044941 0.049315095 0
0.059713811 0.13033468 0.049114704 0
0.058956355 0.13023788 0.048951626 0
0.05820325 0.13013154 0.048768759 0
0.057440639 0.13004553 0.048628092 0
0.056671768 0.12997299 0.048515439 0
0.055897057 0.12991327 0.048429251 0
0.055121452 0.12985545 0.048347116 0
0.054340929 0.12980831 0.048287034 0
0.053558111 0.12976635 0.048237801 0
0.052768379 0.12973964 0.048220158 0
0.051978588 0.12971324 0.04820323 0
0.051182479 0.12970096 0.048215628 0
0.050386935 0.12968779 0.048226118 0
0.04958269 0.12969404 0.048276901 0
0.048787832 0.12967986 0.048285365 0
0.047992259 0.12966764 0.048297882 0
0.047202945 0.12964171 0.048281789 0
0.046413928 0.12961543 0.0482651 0
0.045631021 0.12957567 0.048220396 0
0.044853479 0.12952405 0.048151135 0
0.044068664 0.12948883 0.048115969 0
0.043286622 0.12944758 0.048068166 0
0.042519271 0.12937337 0.047952056 0
0.041764796 0.12927008 0.047775626 0
0.041003376 0.12918234 0.047631502 0
0.040247679 0.12908155 0.047460318 0
0.039503306 0.12895483 0.04723537 0
0.0387806 0.12877834 0.046907425 0
0.038051605 0.12861592 0.046608329 0
0.037324756 0.12844801 0.046298027 0
0.23828396 0.13630038 0.051312208 0
0.2378746 0.13569987 0.050095916 0
0.064129651 0.13185406 0.050245166 0
0.063402861 0.13169354 0.049949646 0
0.062670857 0.13154376 0.04967618 0
0.061933428 0.13140512 0.049426079 0
0.061186492 0.13128638 0.049217343 0
0.060440242 0.13116598 0.049005151 0
0.059696525 0.13103986 0.048781157 0
0.058945864 0.13092852 0.048587799 0
0.058189064 0.13083017 0.048421502 0
0.057422996 0.13075167 0.048296213 0
0.056653976 0.13067943 0.048184276 0
0.055881053 0.13061571 0.048089862 0
0.05510506 0.13055861 0.048009276 0
0.054320514 0.13052022 0.047967553 0
0.053542346 0.13046813 0.047897339 0
0.052742392 0.13046378 0.047926188 0
0.051944584 0.1304549 0.047945738 0
0.051140994 0.13045907 0.047992349 0
0.050339937 0.130458 0.048028111 0
0.049531162 0.13047439 0.048100114 0
0.048723578 0.1304884 0.048167109 0
0.047917008 0.13050061 0.048230648 0
0.04712534 0.13048023 0.048226118 0
0.046329618 0.13046908 0.048241138 0
0.045538515 0.13044798 0.048235178 0
0.044748724 0.13042408 0.048223615 0
0.043967515 0.13038129 0.048172593 0
0.043187827 0.13033503 0.048114657 0
0.042423785 0.13025379 0.047983885 0
0.041648179 0.13019866 0.047907352 0
0.040898591 0.13008463 0.047708631 0
0.040141821 0.12998676 0.047543406 0
0.039392203 0.12987256 0.047344327 0
0.038653523 0.12973309 0.047092676 0
0.037941426 0.12953269 0.046714664 0
0.037225872 0.12933958 0.04635179 0
0.036514938 0.12913513 0.045965433 0
0.034668237 0.12785649 0.04342556 0
0.23813412 0.13602841 0.048945069 0
0.065538377 0.13293666 0.05062139 0
0.064836919 0.13272387 0.050216794 0
0.064110309 0.13256341 0.049921155 0
0.063379735 0.13241094 0.049642086 0
0.062642634 0.13227195 0.04939115 0
0.061904043 0.13213593 0.049146175 0
0.061168015 0.13199407 0.048889399 0
0.060434818 0.13184589 0.04861927 0
0.059686542 0.1317296 0.048415303 0
0.05893451 0.13162112 0.048227906 0
0.05817768 0.13152272 0.048061371 0
0.057415992 0.13143474 0.047916532 0
0.056648105 0.13136011 0.047799587 0
0.055878222 0.13128966 0.047691226 0
0.055099249 0.131239 0.047624111 0
0.054311067 0.13120842 0.0475986 0
0.053532988 0.13115603 0.04752779 0
0.052730054 0.13115793 0.047569871 0
0.051930398 0.13115311 0.047598004 0
0.051113635 0.13118607 0.047704697 0
0.0502958 0.13122177 0.047817111 0
0.049463391 0.13129026 0.047997594 0
0.048650116 0.13131708 0.048091531 0
0.047857851 0.13129789 0.048089862 0
0.047054201 0.13130414 0.048140883 0
0.046247512 0.13131756 0.048206925 0
0.045462221 0.13128382 0.048174858 0
0.044660598 0.13128662 0.048218846 0
0.043861806 0.13128346 0.048250437 0
0.043077648 0.13124782 0.048214436 0
0.042315274 0.13116324 0.048076749 0
0.0415335 0.13112241 0.048030019 0
0.040777177 0.13102424 0.047864199 0
0.040013939 0.13094157 0.047730565 0
0.039264649 0.13082725 0.047531009 0
0.038518786 0.13070482 0.047314763 0
0.037785411 0.13055372 0.047038794 0
0.037075073 0.13034952 0.046652555 0
0.03638497 0.13009816 0.046168327 0
0.035650343 0.12994838 0.045895457 0
0.23799172 0.13692349 0.048978448 0
0.23753467 0.1363892 0.047898293 0
0.23663965 0.13647205 0.048110366 0
0.066250145 0.1337958 0.05057168 0
0.065544605 0.13359225 0.050185919 0
0.064815432 0.13343763 0.049902201 0
0.064086169 0.1332829 0.049618125 0
0.063352793 0.13313639 0.049351454 0
0.062620312 0.1329878 0.049080253 0
0.061890155 0.13283384 0.048797965 0
0.06115827 0.13268328 0.048522711 0
0.060425431 0.13253433 0.048250794 0
0.059681118 0.13240951 0.048029184 0
0.058934569 0.13228923 0.047817111 0
0.058186442 0.13217223 0.047611833 0
0.057422519 0.13208884 0.04747653 0
0.056659907 0.13200271 0.047335505 0
0.055897325 0.1319164 0.047194123 0
0.055129528 0.1318413 0.047076106 0
0.05434525 0.13180202 0.047032595 0
0.053567857 0.13174778 0.046958089 0
0.052782923 0.13171011 0.046917915 0
0.051986963 0.13169676 0.046928525 0
0.051164418 0.13174188 0.047060847 0
0.050277889 0.13192809 0.047486544 0
0.04858458 0.13389045 0.051609755 0
0.048326582 0.13269705 0.049163938 0
0.047763854 0.13217187 0.048109174 0
0.046987444 0.13211823 0.048035741 0
0.04618457 0.13212335 0.048084617 0
0.04538238 0.13212723 0.048131108 0
0.0445714 0.13215125 0.048219204 0
0.043786258 0.13211787 0.04818809 0
0.042988807 0.13211226 0.048214793 0
0.042203516 0.13207972 0.048185229 0
0.041423887 0.13203448 0.048129439 0
0.04067269 0.13192523 0.047940373 0
0.03991133 0.1318388 0.047798991 0
0.039155126 0.13174063 0.047632933 0
0.038405716 0.1316269 0.047434449 0
0.037675679 0.13146865 0.047143698 0
0.036940902 0.13132095 0.046874642 0
0.036261797 0.13104522 0.046339393 0
0.035555601 0.13083082 0.045931458 0
0.034927815 0.13043505 0.045146465 0
0.23699251 0.13784784 0.049112558 0
0.2365807 0.13724995 0.047897935 0
0.066242367 0.13448077 0.050197601 0
0.065526158 0.13429952 0.049858093 0
0.064791381 0.13415676 0.049598813 0
0.064062148 0.13400209 0.049314737 0
0.063327581 0.13385826 0.049053311 0
0.062608421 0.13368154 0.04872334 0
0.061885148 0.13351303 0.048410535 0
0.061152071 0.13336492 0.048140287 0
0.060426265 0.13320106 0.047837138 0
0.059694231 0.13305002 0.047560692 0
0.058957636 0.13290834 0.047303915 0
0.05822736 0.13275284 0.04701817 0
0.057464749 0.13266641 0.04687655 0
0.056731731 0.13251621 0.046601892 0
0.055969387 0.13242894 0.046458602 0
0.055231392 0.13228893 0.046205163 0
0.054509968 0.13211274 0.045876503 0
0.053742886 0.1320352 0.045753479 0
0.053058207 0.13177824 0.045256495 0
0.052244604 0.13180184 0.045344114 0
0.051529557 0.13161021 0.044983268 0
0.051275641 0.13040674 0.042513728 0
0.046128631 0.13291341 0.047930002 0
0.045321375 0.13292879 0.048000455 0
0.044514209 0.13294435 0.048071265 0
0.043695807 0.13298547 0.048195601 0
0.042892963 0.13299227 0.048248291 0
0.042106837 0.13296187 0.048223376 0
0.041328907 0.13291329 0.048160553 0
0.040550739 0.13286531 0.048099041 0
0.039797604 0.13276088 0.047920108 0
0.039047956 0.13264829 0.047723889 0
0.038288563 0.13255775 0.047573805 0
0.037560135 0.13239652 0.047276378 0
0.036799133 0.13230926 0.047133088 0
0.036108494 0.13206077 0.046653867 0
0.035433024 0.13177669 0.046100736 0
0.034770459 0.13146186 0.04548347 0
0.23854557 0.13987988 0.051417112 0
0.23787609 0.13964802 0.050969481 0
0.23755434 0.13892716 0.049495459 0
0.23724833 0.13818198 0.047970653 0
0.066936642 0.13537592 0.050223589 0
0.066225111 0.13518554 0.04986465 0
0.065495878 0.13503158 0.049582005 0
0.064765066 0.13488072 0.049305558 0
0.064034551 0.13472879 0.049026966 0
0.063318819 0.13454527 0.04868269 0
0.062600344 0.13436723 0.048349619 0
0.061879933 0.13419265 0.048023939 0
0.06115979 0.13401723 0.047696233 0
0.060461402 0.1337949 0.047271013 0
0.059737682 0.13362598 0.046957135 0
0.059001863 0.13348246 0.046696067 0
0.058288485 0.13329047 0.046334267 0
0.057542741 0.13316751 0.046116352 0
0.056833476 0.1329658 0.045734048 0
0.056150347 0.13270718 0.04523313 0
0.055453867 0.13247651 0.044790387 0
0.054757684 0.13224453 0.044345021 0
0.054055125 0.1320256 0.043927073 0
0.053388804 0.1317271 0.043343067 0
0.052672148 0.13153738 0.042985797 0
0.052067161 0.1311031 0.04211843 0
0.046970993 0.13348681 0.047285318 0
0.046147227 0.13353801 0.047430634 0
0.045302093 0.13363731 0.047676444 0
0.044462532 0.13372487 0.047897696 0
0.0436261 0.13380635 0.048106313 0
0.042815059 0.13383168 0.048197865 0
0.042016357 0.13382983 0.048232555 0
0.041237026 0.13378477 0.048177123 0
0.040455967 0.1337437 0.048130155 0
0.039696902 0.13365304 0.047979832 0
0.038937896 0.13356209 0.047828794 0
0.038178772 0.13347149 0.047678351 0
0.037435502 0.13334459 0.047452331 0
0.036683232 0.13323808 0.047268748 0
0.035977155 0.13302571 0.046864629 0
0.035286874 0.13277626 0.046383142 0
0.034625381 0.13245994 0.045762062 0
0.033942819 0.13219088 0.045239687 0
0.23775014 0.13934618 0.048531771 0
0.068224818 0.13670355 0.051115155 0
0.067623824 0.13628519 0.050279498 0
0.066915303 0.13608909 0.0499084 0
0.066198319 0.13591015 0.049573183 0
0.06546393 0.13576722 0.049313307 0
0.064739883 0.13560218 0.049007297 0
0.064029515 0.13540804 0.048640251 0
0.063311487 0.13522959 0.048305988 0
0.062592208 0.13505316 0.047976136 0
0.061896056 0.13482732 0.047543168 0
0.061186224 0.13462985 0.047169328 0
0.060512006 0.1343562 0.046636343 0
0.059822232 0.13411462 0.046170592 0
0.059079319 0.13398576 0.045940042 0
0.058368593 0.13378775 0.045565248 0
0.057660908 0.13358283 0.045175791 0
0.057007074 0.13326138 0.044543266 0
0.056320697 0.1330089 0.044054627 0
0.05566451 0.13269055 0.043428421 0
0.054954588 0.13248724 0.04304266 0
0.054350466 0.13205385 0.042176127 0
0.053705543 0.13170749 0.041491628 0
0.053012699 0.1314643 0.041022658 0
0.052287221 0.13129163 0.040700793 0
0.051748693 0.13070911 0.039523125 0
0.047023267 0.13226348 0.042964339 0
0.045704395 0.13340968 0.045397282 0
0.044571251 0.13414854 0.04697907 0
0.043590307 0.13455141 0.047859311 0
0.042737991 0.13466907 0.048143864 0
0.041913003 0.13472641 0.048302412 0
0.041125804 0.13469946 0.048284888 0
0.040345669 0.13465673 0.048234463 0
0.039595068 0.13454747 0.048045039 0
0.03881672 0.13450092 0.047986627 0
0.038066894 0.13438964 0.04779315 0
0.037318707 0.13427454 0.047591567 0
0.036572903 0.13415378 0.047378182 0
0.035845429 0.13399082 0.047076821 0
0.035140634 0.13377559 0.046666145 0
0.034492165 0.13343018 0.045983911 0
0.033840239 0.13309151 0.045315742 0
0.067613393 0.13697559 0.049917221 0
0.066892177 0.13680607 0.049601316 0
0.066162676 0.1366533 0.049320698 0
0.065443486 0.13647872 0.048994422 0
0.064721107 0.13631022 0.048680782 0
0.064019173 0.13609856 0.048276901 0
0.063300163 0.13592207 0.047946692 0
0.062596262 0.13571334 0.04754889 0
0.06193915 0.13540506 0.046942949 0
0.061249107 0.13516551 0.046480894 0
0.060575515 0.13489026 0.045943975 0
0.059913069 0.13459033 0.045355678 0
0.059175819 0.13444895 0.04509902 0
0.058475733 0.13422775 0.04467535 0
0.057772994 0.13401163 0.044262409 0
0.057184011 0.13355052 0.043336868 0
0.056530535 0.13322651 0.042698264 0
0.055909842 0.13283068 0.041909337 0
0.055237621 0.13254464 0.041350245 0
0.054593474 0.13219678 0.040661931 0
0.053951681 0.13184255 0.039960265 0
0.053279668 0.13155282 0.039393306 0
0.052530974 0.13142937 0.039174438 0
0.046604395 0.13207972 0.040808558 0
0.045335203 0.13311535 0.043012977 0
0.043921709 0.13447797 0.045901179 0
0.042755485 0.13529491 0.047648311 0
0.04184562 0.13554204 0.048203826 0
0.041026592 0.1355868 0.048336267 0
0.040250957 0.13553429 0.048265457 0
0.039485782 0.13545835 0.048145771 0
0.038710207 0.13540596 0.04807508 0
0.0379664 0.13528162 0.047854185 0
0.037217647 0.13516825 0.047656298 0
0.036469132 0.13505417 0.047456622 0
0.035721719 0.13493735 0.047251463 0
0.035000741 0.13475978 0.046919346 0
0.034338742 0.13444644 0.046303391 0
0.033716947 0.13403934 0.045491457 0
0.033121318 0.13357025 0.044550061 0
0.032386094 0.1334219 0.044279099 0
0.068885773 0.13833332 0.050874591 0
0.068280727 0.13792509 0.050058246 0
0.067572087 0.13773012 0.049689054 0
0.066846311 0.13757014 0.049393058 0
0.066126436 0.13739765 0.049070716 0
0.065410048 0.13721734 0.048732162 0
0.064697474 0.13702852 0.048375845 0
0.064000994 0.13680547 0.047947764 0
0.063299417 0.13659245 0.047540665 0
0.062630802 0.13630939 0.046987057 0
0.061999768 0.13594604 0.046265244 0
0.061354786 0.13561094 0.045602441 0
0.060688168 0.13532048 0.045033455 0
0.059980571 0.13511622 0.044644713 0
0.059250504 0.13495904 0.044354916 0
0.058566153 0.13470387 0.043859839 0
0.057890594 0.13442922 0.043323755 0
0.057281733 0.13401049 0.042486191 0
0.056721658 0.13348526 0.041425467 0
0.056082457 0.13312846 0.040717721 0
0.055454344 0.13274646 0.039957285 0
0.054843575 0.13232541 0.039114952 0
0.046039939 0.13221705 0.039320946 0
0.044760972 0.13327497 0.041574597 0
0.043226361 0.13490885 0.04503417 0
0.041853905 0.13618815 0.04775095 0
0.040949434 0.1364243 0.048284292 0
0.040153354 0.1364181 0.048310518 0
0.03936851 0.13638699 0.048284411 0
0.038622797 0.1362676 0.048073769 0
0.037858576 0.13618988 0.047950149 0
0.037107646 0.13608199 0.047763586 0
0.036365896 0.13595307 0.047532797 0
0.03561607 0.13584232 0.047340155 0
0.034905821 0.13564068 0.046957374 0
0.034208387 0.13540924 0.046512246 0
0.033578008 0.13502276 0.045742631 0
0.032998562 0.13451743 0.044724464 0
0.032238424 0.13442731 0.044575095 0
0.068250239 0.13865685 0.049783111 0
0.06753844 0.13846862 0.049427509 0
0.066805273 0.1383242 0.049163938 0
0.066097945 0.13812578 0.048786998 0
0.065386266 0.1379357 0.048427701 0
0.064674973 0.13774437 0.048065901 0
0.063985854 0.13750613 0.047605395 0
0.063316345 0.13722587 0.047057152 0
0.062679946 0.13687509 0.04636085 0
0.06207478 0.13645697 0.045523643 0
0.061438948 0.13610232 0.044819236 0
0.060743362 0.13587296 0.044377685 0
0.060013503 0.13571554 0.044087052 0
0.059269041 0.135589 0.043861032 0
0.058630764 0.13523555 0.043159604 0
0.057962418 0.13494515 0.042590141 0
0.057400554 0.13442564 0.041540384 0
0.056898683 0.13377506 0.040215969 0
0.056278288 0.13337708 0.039421082 0
0.044176847 0.1334551 0.040177226 0
0.042489469 0.13543212 0.044359565 0
0.040923715 0.13714629 0.047991037 0
0.040055841 0.13730145 0.048355341 0
0.039276242 0.13725889 0.048305511 0
0.038521469 0.13716042 0.04813838 0
0.037768573 0.13705748 0.04796207 0
0.037008345 0.13697112 0.04782033 0
0.036271781 0.13683087 0.047565818 0
0.035531521 0.1366986 0.047327995 0
0.034806848 0.13653052 0.047015309 0
0.034102112 0.1363163 0.046605825 0
0.033485383 0.13589942 0.045771599 0
0.032890648 0.13543004 0.0448277 0
0.069395214 0.14027351 0.051287055 0
0.068885118 0.13967198 0.050063372 0
0.068201423 0.13942659 0.049587369 0
0.067489713 0.13923842 0.049231768 0
0.066767603 0.13907117 0.048920155 0
0.066057146 0.13887936 0.048556805 0
0.065344721 0.13869113 0.048201084 0
0.064643383 0.13847929 0.047795653 0
0.063984901 0.13817704 0.04720068 0
0.063369662 0.13778311 0.046413064 0
0.062753767 0.137389 0.045625448 0
0.062141299 0.13698626 0.044819474 0
0.061464339 0.13671827 0.044296384 0
0.060735971 0.13655818 0.04399991 0
0.060009331 0.13639408 0.043694973 0
0.05933702 0.13611394 0.04314661 0
0.0586752 0.13581055 0.042549253 0
0.058094412 0.135333 0.041586518 0
0.057541043 0.13479483 0.040496588 0
0.057063311 0.13409227 0.039061546 0
0.043343604 0.13419032 0.039941788 0
0.041350037 0.13685632 0.045574546 0
0.039995939 0.13810003 0.048223257 0
0.039179355 0.1381408 0.048348188 0
0.038415939 0.1380623 0.048222899 0
0.037663847 0.13795811 0.048043728 0
0.0369142 0.1378482 0.047852755 0
0.036177307 0.13770926 0.047600746 0
0.03543821 0.13757485 0.047358394 0
0.034707725 0.13742054 0.04707396 0
0.033987194 0.13724297 0.046741128 0
0.033346742 0.13688123 0.046021938 0
0.032758981 0.13639688 0.045045495 0
0.032230675 0.13577342 0.043777585 0
0.031557739 0.13548154 0.043204784 0
0.068846464 0.14042038 0.049823642 0
0.068152934 0.14019549 0.049390435 0
0.067439824 0.14001036 0.049040914 0
0.066726863 0.13982445 0.048689723 0
0.066015333 0.13963509 0.048331261 0
0.065307587 0.13943726 0.047955155 0
0.064625174 0.13918614 0.047466993 0
0.063997716 0.13881922 0.046735406 0
0.063456833 0.13826954 0.045619726 0
0.062828481 0.13790148 0.044885993 0
0.062204987 0.13752186 0.044127584 0
0.061493456 0.13732648 0.043756843 0
0.060748488 0.13720137 0.043533564 0
0.060011834 0.13705838 0.043272734 0
0.059384078 0.13668376 0.042525411 0
0.058735967 0.13635099 0.041865826 0
0.058162421 0.135858 0.040869594 0
0.057648838 0.13523465 0.039599657 0
0.042630702 0.13465667 0.03914237 0
0.039992779 0.13877118 0.047823906 0
0.039075404 0.13903838 0.048424721 0
0.038306236 0.13897324 0.048327565 0
0.037576795 0.13881838 0.04804194 0
0.036835492 0.13869005 0.047811985 0
0.036082238 0.13858855 0.047638416 0
0.03535217 0.13843411 0.047353745 0
0.034621239 0.13828117 0.047072291 0
0.033898026 0.13811034 0.046753168 0
0.03324011 0.13778925 0.046118617 0
0.032673955 0.13725609 0.0450387 0
0.032141149 0.13664383 0.043792844 0
0.031404853 0.13649887 0.043528199 0
0.06989041 0.14223939 0.051758051 0
0.069457471 0.14148265 0.050205112 0
0.068793893 0.14119726 0.049644113 0
0.068101913 0.14096951 0.049204588 0
0.067385674 0.14079106 0.048868775 0
0.066670626 0.14060974 0.048527002 0
0.065972537 0.14039272 0.048110127 0
0.065267801 0.14018893 0.047721028 0
0.064600736 0.13990599 0.047165394 0
0.064019263 0.13944328 0.046231747 0
0.063503027 0.13884228 0.045006752 0
0.06289348 0.13843471 0.044188976 0
0.062224895 0.13814968 0.043629289 0
0.061417401 0.13815665 0.043683767 0
0.06070295 0.13796729 0.043325305 0
0.060011953 0.13772786 0.042861462 0
0.059325665 0.13747752 0.04237473 0
0.058734149 0.13702488 0.041462302 0
0.058269143 0.13630062 0.039978623 0
0.04143694 0.13619977 0.040606141 0
0.038974911 0.13992786 0.048485041 0
0.03820461 0.1398657 0.048394322 0
0.037477434 0.13970625 0.048098683 0
0.036725014 0.1396035 0.047922492 0
0.035980344 0.13948303 0.047709107 0
0.035257906 0.13931185 0.047388792 0
0.034531921 0.13914818 0.047084451 0
0.033800304 0.13899696 0.046806335 0
0.033128321 0.13870871 0.046240211 0
0.03256458 0.13817102 0.045149803 0
0.032090396 0.13742495 0.043621182 0
0.031488001 0.13697118 0.042707324 0
0.030646056 0.13706958 0.042953968 0
0.06994918 0.14278734 0.051098585 0
0.069415122 0.1422382 0.049981356 0
0.068743318 0.14196998 0.04945612 0
0.068037719 0.14177048 0.049075723 0
0.067320555 0.14159429 0.04874444 0
0.066616207 0.14139116 0.048356533 0
0.065915108 0.14118069 0.04795301 0
0.065217167 0.14096302 0.047534347 0
0.064578056 0.14062226 0.046856523 0
0.064023823 0.14010304 0.045802474 0
0.063510478 0.13949639 0.044564486 0
0.062945873 0.13899463 0.04354763 0
0.062203228 0.13886517 0.043314934 0
0.061354935 0.13895798 0.043550611 0
0.060542643 0.13897562 0.043627739 0
0.060005695 0.13841093 0.042478323 0
0.059340477 0.13811606 0.041897416 0
0.058879942 0.13738513 0.040398002 0
0.038094282 0.14077741 0.048502207 0
0.037365586 0.14062196 0.048215032 0
0.036627918 0.14048642 0.04796958 0
0.035890043 0.140351 0.047724605 0
0.035161912 0.1401931 0.047432184 0
0.034438133 0.14002502 0.047118306 0
0.033719242 0.13984519 0.046779752 0
0.033030361 0.13959616 0.046295643 0
0.032432497 0.13913757 0.045370579 0
0.031986684 0.13832742 0.043705463 0
0.031481713 0.13765001 0.042319775 0
0.069361717 0.14301622 0.049805403 0
0.068687409 0.14275354 0.049291372 0
0.067976862 0.14256448 0.048932672 0
0.067252219 0.14240396 0.048634291 0
0.066554129 0.14218825 0.048219323 0
0.065853745 0.14197659 0.047813058 0
0.065161347 0.14174777 0.047370553 0
